NCOLS 199
NROWS 178
XLLCORNER 121617.0687
YLLCORNER 7616439.9638
CELLSIZE 100 
NODATA_value -9999 
-9999 -9999 7 19 21 13 19 23 25 18 22 8 5 8 8 6 11 19 21 21 23 19 7 8 7 6 7 3 0 6 7 6 9 10 8 8 7 13 10 8 5 7 7 6 19 20 22 19 23 22 21 21 17 23 19 22 21 22 21 24 25 25 17 25 25 21 26 25 22 27 27 23 27 26 27 25 27 23 27 30 31 25 28 24 22 26 25 26 21 28 27 21 23 25 26 26 27 27 28 28 23 22 22 22 21 21 23 22 27 24 30 24 22 26 27 27 5 4 6 8 7 17 15 13 16 19 12 7 6 7 3 4 8 7 16 22 20 24 25 16 8 10 13 23 6 12 14 9 7 7 6 6 6 4 6 8 8 8 8 12 8 9 8 8 15 14 9 8 5 7 6 5 6 3 6 10 7 11 7 4 8 6 8 8 6 5 6 7 8 12 8 7 19 -9999 -9999 -9999 -9999 -9999 -9999
-9999 -9999 8 16 18 21 17 15 21 17 25 9 7 6 6 11 17 13 27 27 8 16 16 7 8 7 6 6 3 5 6 12 10 8 7 12 7 8 7 8 12 5 11 8 20 23 20 18 21 21 23 22 23 21 18 23 20 23 23 22 22 21 21 23 22 23 21 21 23 26 26 25 25 31 25 23 26 32 29 27 26 26 28 25 23 24 26 27 25 28 27 25 24 26 27 29 29 25 28 27 24 22 21 23 21 24 21 24 25 23 24 31 23 23 23 25 7 6 4 4 16 14 21 18 18 12 12 9 5 6 7 6 5 6 6 7 22 20 7 15 7 13 15 11 8 8 10 8 25 11 6 7 5 6 6 5 3 4 6 7 6 5 6 7 7 14 8 7 8 5 5 5 4 4 4 8 5 5 7 6 6 5 5 5 6 6 5 7 6 5 6 5 9 17 -9999 -9999 -9999 -9999 -9999
-9999 -9999 19 14 12 15 18 18 10 18 23 7 8 9 10 24 24 23 9 9 5 7 7 13 10 7 8 8 0 0 5 6 5 7 8 10 9 8 6 6 6 10 7 8 20 20 20 22 17 23 20 22 10 12 9 23 19 22 22 21 23 25 23 25 21 24 22 19 22 25 22 22 23 23 23 23 22 28 27 25 25 26 27 26 29 23 25 25 30 27 29 28 25 26 28 27 27 29 27 26 24 23 25 20 24 23 23 24 22 25 24 23 24 23 24 23 9 9 5 4 7 10 9 9 20 15 6 6 6 7 13 7 7 8 5 7 19 15 6 22 6 7 8 9 15 10 9 8 7 11 9 14 4 6 11 10 7 5 7 8 6 7 8 11 7 5 7 7 8 5 7 4 7 4 7 6 7 6 7 7 6 7 5 6 6 7 0 6 7 7 8 7 6 6 -9999 -9999 -9999 -9999 -9999
-9999 -9999 15 15 12 15 16 21 11 19 18 7 5 16 20 17 23 20 11 11 6 9 20 18 20 19 13 6 6 0 3 5 8 6 7 4 8 11 7 8 11 12 6 23 13 13 19 21 22 26 23 22 8 5 19 22 21 23 20 23 23 21 23 22 24 21 22 23 22 25 23 23 23 23 22 25 23 22 26 25 30 23 27 26 26 26 26 27 27 26 27 23 30 32 26 27 26 28 27 26 27 21 22 23 24 25 27 26 26 26 31 27 22 25 22 8 9 11 11 7 6 7 5 7 8 13 6 6 6 7 9 8 8 7 6 6 6 7 16 16 6 8 6 9 11 5 8 6 6 8 6 6 7 6 6 6 13 6 6 6 6 8 7 7 12 7 6 7 4 6 6 7 6 6 11 8 4 9 13 7 6 6 6 4 5 6 5 0 7 9 6 6 6 10 -9999 -9999 -9999 -9999 -9999
-9999 -9999 19 18 10 17 18 22 14 10 19 16 11 18 20 19 15 21 7 7 11 16 15 17 15 15 18 7 0 0 0 4 5 4 8 8 8 14 12 13 11 12 20 23 21 22 18 19 23 20 24 22 9 6 23 23 22 20 21 22 23 22 25 25 22 22 21 22 30 23 22 25 23 23 23 22 23 23 23 25 23 22 26 23 25 22 24 26 19 22 26 25 27 25 27 27 24 26 24 30 19 19 25 23 23 24 26 29 26 25 26 26 26 31 10 8 13 5 7 6 5 8 14 7 5 6 5 7 10 10 13 6 14 13 7 6 6 6 10 10 6 8 7 9 9 20 13 6 16 11 5 6 6 7 7 12 14 12 11 7 6 8 11 7 7 7 7 6 6 6 6 8 8 11 5 6 7 7 10 7 4 5 5 6 7 6 6 6 4 5 5 6 6 6 -9999 -9999 -9999 -9999 -9999
-9999 -9999 -9999 18 18 18 22 22 14 7 12 17 26 16 20 26 20 8 14 14 16 21 17 16 12 23 7 11 6 3 3 3 5 6 8 6 6 15 19 8 18 8 19 23 19 20 20 20 20 21 21 17 15 22 12 16 19 21 21 21 24 22 22 23 25 20 20 23 26 23 22 25 23 23 31 23 23 22 25 24 23 21 25 23 23 22 24 25 25 24 22 22 27 25 21 27 27 26 27 25 21 20 31 26 25 22 25 28 25 27 23 23 26 28 11 19 9 6 9 9 7 6 7 10 9 9 7 5 5 7 9 7 7 15 16 15 6 0 10 7 9 10 5 8 9 10 6 5 19 8 11 15 10 6 7 9 9 6 10 6 8 6 3 3 7 15 12 17 6 6 7 6 10 23 7 8 8 7 9 8 5 6 6 6 7 4 5 6 7 4 6 7 7 7 -9999 -9999 -9999 -9999 -9999
-9999 -9999 -9999 15 17 20 22 18 19 19 12 16 18 16 6 22 7 5 7 7 9 11 11 14 12 19 8 15 8 6 3 6 7 6 4 9 8 7 14 7 14 13 22 20 21 18 16 16 19 19 21 20 21 22 10 19 20 23 23 20 23 19 23 24 27 20 22 25 25 24 25 22 23 23 25 25 24 24 23 23 22 22 27 30 20 22 22 23 31 23 26 26 26 23 23 25 25 23 23 31 23 20 25 23 23 25 26 25 31 25 26 27 31 31 22 6 9 15 6 6 6 7 7 7 5 5 5 7 17 19 6 8 16 11 13 7 9 6 6 7 7 8 6 10 16 12 9 16 6 6 13 8 10 9 7 7 8 8 19 14 10 5 6 7 3 11 6 6 7 7 10 6 6 18 7 5 7 5 7 6 8 5 6 6 6 5 6 5 4 4 6 9 5 6 -9999 -9999 -9999 -9999 -9999
-9999 -9999 -9999 17 14 13 12 21 22 18 20 17 13 19 17 8 6 15 7 7 14 17 16 13 11 9 16 19 19 13 7 5 7 7 4 5 12 7 7 8 21 21 21 19 19 16 17 19 22 13 20 20 23 20 9 19 17 23 24 22 21 20 25 26 27 24 22 32 28 25 23 23 23 25 26 22 23 26 31 22 23 22 25 31 22 23 22 20 22 26 24 22 23 25 22 22 23 25 31 31 22 31 31 22 25 23 27 25 24 25 24 23 30 29 28 11 6 9 5 5 9 6 6 5 7 7 6 6 9 11 13 12 21 11 10 18 7 9 6 6 5 7 9 8 20 15 4 14 6 8 10 3 5 5 5 6 7 6 8 6 14 10 5 7 4 15 8 6 6 6 8 7 14 11 8 15 5 6 9 6 7 6 7 8 7 6 6 5 12 4 5 6 7 5 -9999 -9999 -9999 -9999 -9999
-9999 -9999 -9999 13 8 6 6 10 14 25 17 19 22 20 17 8 6 13 9 9 7 7 8 7 5 9 16 17 13 21 10 5 7 13 12 7 5 9 5 8 21 22 22 21 21 16 11 19 18 17 24 19 19 21 21 9 16 20 22 20 21 21 29 25 22 22 22 27 31 29 27 27 28 27 23 25 23 22 24 21 23 24 28 24 22 22 25 21 24 21 24 24 23 23 22 25 21 22 27 29 25 31 28 26 26 23 22 23 22 23 23 25 23 26 18 9 14 5 25 7 7 6 10 6 5 6 6 7 7 17 12 4 15 7 6 6 12 8 6 6 6 5 4 10 11 17 8 8 15 6 6 6 12 6 5 7 8 15 6 12 14 6 7 6 3 7 14 12 10 13 6 6 16 12 12 7 6 14 5 11 6 5 5 7 10 7 4 5 3 0 6 7 5 6 -9999 -9999 -9999 -9999 -9999
-9999 -9999 -9999 16 21 15 16 17 14 6 18 19 26 18 29 5 13 20 6 6 4 7 11 7 8 7 9 17 20 21 16 3 5 7 10 12 11 11 6 11 19 22 21 19 23 16 22 20 19 21 22 21 21 20 18 13 12 22 21 21 22 22 20 25 27 25 25 28 29 28 27 27 30 25 25 25 31 26 29 24 29 25 23 21 19 19 22 23 25 17 25 25 23 23 23 21 22 22 25 25 23 25 25 31 27 23 22 23 22 24 22 28 23 28 10 9 3 3 25 6 8 6 12 9 11 6 6 5 8 24 8 7 7 6 6 6 6 12 7 13 4 6 5 7 8 9 7 6 8 9 8 7 9 6 6 6 5 6 6 6 10 6 7 6 12 4 5 6 10 11 7 7 5 20 10 17 8 10 6 5 6 5 6 7 16 5 3 6 5 0 7 4 8 5 -9999 -9999 -9999 -9999 -9999
-9999 -9999 -9999 22 25 20 21 20 18 14 12 22 14 5 5 7 21 8 6 6 6 4 0 8 8 7 9 10 15 10 18 4 3 6 9 8 10 10 9 7 16 17 17 20 22 22 19 18 19 22 17 21 20 20 19 19 17 9 21 22 22 21 23 20 25 25 30 29 31 27 24 29 27 26 26 32 29 27 26 28 29 25 23 23 25 22 22 27 27 24 24 23 23 23 22 22 23 19 25 28 28 23 27 27 25 23 28 23 23 30 25 27 23 20 8 7 7 3 6 5 9 7 12 10 7 6 7 4 9 8 7 7 14 17 13 0 4 10 7 6 10 6 6 6 7 14 10 6 6 11 5 6 8 6 6 6 5 6 10 6 6 3 8 5 5 0 0 5 5 4 7 10 6 18 15 13 7 14 6 8 7 6 7 7 11 7 7 13 3 0 8 5 0 6 -9999 -9999 -9999 -9999 -9999
-9999 -9999 -9999 23 21 22 22 22 16 16 16 16 18 6 7 23 11 6 6 6 8 6 5 3 7 6 10 13 14 18 18 15 7 3 0 3 3 5 5 7 12 22 21 16 19 22 20 22 19 21 18 20 21 22 22 22 20 16 18 21 21 21 21 19 22 23 29 27 25 28 25 25 29 31 29 27 24 28 27 26 31 27 25 24 23 22 24 26 27 22 26 29 23 22 22 22 22 26 23 22 23 21 29 25 26 25 22 23 24 31 23 25 24 28 8 6 10 8 10 6 4 6 6 9 6 7 7 8 9 7 10 10 20 11 17 6 11 9 13 5 7 9 7 7 11 14 17 6 8 7 9 8 5 3 3 5 7 6 6 7 8 7 5 6 7 5 4 5 8 7 4 7 6 7 8 7 17 6 6 6 11 6 6 6 10 5 6 9 8 0 3 5 6 8 -9999 -9999 -9999 -9999 -9999
-9999 -9999 -9999 21 18 22 22 21 20 19 21 13 12 17 23 25 8 13 10 10 15 7 3 4 5 11 7 11 17 22 15 14 21 17 9 7 6 8 7 7 7 23 19 25 16 20 21 20 21 22 20 22 21 19 23 24 20 21 20 22 21 21 24 22 23 25 25 25 22 28 23 23 21 23 23 23 22 27 27 23 26 30 23 27 26 22 24 25 23 22 31 30 22 21 22 22 23 23 26 24 23 22 25 26 23 23 22 25 25 31 25 29 25 29 22 7 9 7 5 7 7 6 5 8 9 8 9 9 7 20 8 13 15 10 5 7 12 6 16 16 17 11 7 5 6 5 7 4 6 7 0 6 3 5 5 6 0 5 4 6 9 16 7 6 5 6 7 6 5 7 6 7 6 6 7 5 6 9 6 6 9 7 8 5 3 4 0 5 6 9 6 6 7 4 -9999 -9999 -9999 -9999 -9999
-9999 -9999 -9999 20 22 25 21 20 17 20 25 17 7 18 24 11 8 14 13 13 7 7 6 8 6 4 5 5 10 11 11 20 18 14 18 19 8 10 13 10 14 22 23 18 21 21 20 16 19 23 19 19 19 22 18 19 24 22 19 21 20 23 21 21 22 23 22 24 25 23 24 22 23 23 23 23 26 26 26 28 23 25 29 25 26 23 27 22 22 23 30 31 25 18 22 23 25 25 23 23 25 23 26 29 29 22 22 23 23 25 24 29 23 26 23 27 18 7 5 4 4 6 10 10 9 7 7 6 9 9 10 5 7 9 6 5 4 7 6 22 7 8 16 8 6 7 8 3 0 5 4 0 0 0 3 6 7 6 6 5 8 6 7 5 7 12 11 16 5 6 7 7 6 8 5 4 6 8 13 6 6 5 5 7 8 6 6 6 11 9 14 7 5 7 -9999 -9999 -9999 -9999 -9999
-9999 -9999 -9999 22 18 9 25 16 10 13 11 18 24 8 17 21 16 15 7 7 13 8 7 11 8 13 8 4 8 4 15 14 16 21 22 22 24 18 11 7 14 27 22 21 27 20 21 20 25 21 20 19 19 21 19 21 19 22 17 21 21 23 23 20 24 22 22 22 22 23 23 23 22 23 23 23 25 25 26 30 25 25 27 25 25 26 21 22 24 22 23 25 27 22 25 20 24 27 23 23 22 22 18 27 25 23 25 23 26 23 28 8 9 25 25 10 13 6 6 4 9 10 8 7 7 5 5 11 9 6 7 4 6 10 7 7 7 8 12 18 14 16 10 7 10 6 6 6 4 6 5 3 3 4 3 6 8 8 7 5 8 8 11 7 6 11 16 8 3 5 17 16 11 10 5 6 6 11 7 6 5 5 6 6 6 11 8 5 16 6 5 6 6 7 -9999 -9999 -9999 -9999 -9999
-9999 -9999 -9999 26 11 18 25 15 16 20 19 21 23 5 15 23 13 6 7 7 17 17 8 14 13 12 6 11 7 6 4 6 16 16 18 16 19 15 12 7 24 23 20 22 20 19 22 23 20 27 23 19 16 19 19 22 19 19 22 22 22 21 22 19 22 23 22 26 23 23 23 22 23 23 22 25 25 26 25 27 22 25 24 22 26 27 22 22 22 25 22 22 28 23 19 23 19 19 25 24 22 23 23 30 23 22 23 26 23 24 31 16 27 6 5 6 5 5 3 5 4 7 6 5 5 5 9 6 6 6 7 4 6 7 8 6 10 10 16 17 14 14 15 17 11 6 6 6 6 0 9 10 9 7 10 7 7 8 12 5 7 8 8 7 6 0 13 9 7 6 16 22 8 9 9 12 11 5 6 10 6 5 6 5 5 6 8 7 5 7 6 3 9 7 -9999 -9999 -9999 -9999 -9999
-9999 -9999 -9999 15 21 22 21 5 7 6 24 23 22 7 12 11 4 6 13 13 12 10 6 6 12 19 17 14 11 8 5 8 18 22 22 22 19 10 19 12 25 22 16 18 20 20 18 23 21 19 23 23 22 22 25 18 19 23 24 22 19 20 21 22 26 23 25 23 23 25 23 23 25 25 23 22 25 24 25 22 24 21 23 18 23 25 23 23 22 25 25 24 23 24 23 24 20 19 22 23 25 23 25 24 23 26 25 23 23 22 24 25 30 6 6 6 4 7 6 9 0 6 6 6 6 7 9 16 8 6 8 7 6 4 6 11 13 13 9 9 16 14 17 16 16 9 14 6 5 4 16 10 11 5 7 13 6 6 5 5 6 14 11 9 9 7 7 10 7 6 7 16 7 6 15 10 13 7 12 6 6 16 6 9 8 8 6 7 6 6 7 10 6 8 -9999 -9999 -9999 -9999 -9999
-9999 -9999 -9999 8 11 17 19 5 6 11 20 22 22 19 23 24 6 6 11 11 5 5 6 6 21 12 17 17 16 17 16 7 10 10 21 21 17 17 17 16 20 17 19 19 22 21 23 19 19 22 20 21 21 19 26 16 21 21 23 26 23 23 24 23 25 29 31 23 23 24 24 27 23 23 23 24 25 20 22 25 26 22 24 25 26 29 16 21 22 22 23 26 24 23 23 23 22 24 23 23 25 24 23 26 24 24 24 22 23 22 21 25 27 22 9 0 5 3 6 7 8 7 9 5 5 6 8 6 15 8 6 6 7 6 6 7 16 11 11 9 8 15 8 9 9 11 7 5 17 7 14 15 17 5 17 5 6 8 7 12 7 10 15 16 8 14 6 11 7 8 4 6 6 9 6 14 6 3 9 7 5 9 6 6 6 6 10 3 6 6 8 7 8 9 -9999 -9999 -9999 -9999 -9999
-9999 -9999 -9999 21 11 6 15 6 10 16 25 22 19 20 17 6 18 11 14 14 7 0 7 17 10 3 13 21 13 10 18 7 5 12 22 19 21 22 19 19 21 17 17 19 18 18 28 21 22 20 21 22 22 18 20 20 25 24 22 21 23 21 23 27 26 27 31 27 27 27 25 26 25 31 23 30 24 22 23 25 18 26 22 23 23 26 16 22 21 21 23 25 23 23 23 22 23 19 24 23 22 25 24 24 23 23 22 24 22 22 21 25 26 23 19 21 14 8 4 5 10 6 10 10 6 11 5 11 11 7 7 7 7 6 6 0 17 7 8 11 5 4 6 6 6 7 5 6 8 8 10 6 13 7 16 6 6 10 7 13 10 10 16 17 17 6 6 8 7 8 9 5 6 6 5 16 15 6 10 15 13 8 13 15 6 7 8 10 6 5 11 7 9 8 -9999 -9999 -9999 -9999 -9999
-9999 -9999 -9999 10 5 5 6 12 20 22 21 16 20 21 5 0 16 17 23 23 13 10 6 16 5 5 5 16 7 17 12 18 13 4 12 22 21 20 19 20 21 22 20 21 21 21 22 16 22 19 20 18 19 19 21 19 22 21 22 18 22 22 26 26 26 25 31 28 27 24 25 31 27 32 26 25 21 25 23 27 18 23 24 23 25 26 24 24 23 26 25 25 23 24 24 22 25 24 23 23 29 25 25 22 25 22 22 22 22 22 23 21 22 23 23 23 5 5 7 6 6 7 11 6 6 9 7 4 9 7 13 9 5 9 15 13 16 7 5 12 5 6 8 10 5 0 8 8 6 7 5 5 7 10 8 6 10 7 6 5 13 10 9 16 11 7 7 7 7 16 5 8 13 14 6 9 11 6 8 5 14 12 3 14 9 6 18 9 5 5 7 13 14 5 -9999 -9999 -9999 -9999 -9999
-9999 -9999 -9999 7 8 9 17 22 15 21 21 19 22 27 23 10 7 18 11 11 17 6 7 15 10 5 6 7 13 12 19 16 4 6 11 21 20 22 20 26 26 21 20 18 22 21 18 22 23 21 19 18 19 18 23 22 22 21 23 23 22 21 22 21 27 25 23 27 22 28 27 31 27 32 25 25 27 24 23 23 22 22 23 23 22 26 23 23 25 20 23 23 27 23 27 23 25 23 23 24 23 23 25 23 23 23 23 25 25 28 23 25 22 23 26 23 17 4 8 7 5 7 6 7 8 7 6 5 5 6 9 11 6 6 6 5 13 11 7 11 10 5 6 7 9 4 6 7 7 16 7 13 7 12 6 6 6 8 5 5 10 10 15 7 5 4 7 5 7 6 8 7 6 7 5 6 5 7 10 6 5 10 6 4 7 9 6 11 15 6 9 6 5 10 -9999 -9999 -9999 -9999 -9999
-9999 -9999 -9999 5 12 20 21 9 10 12 18 19 25 24 15 15 6 20 25 25 22 11 8 16 19 9 6 8 5 8 16 16 16 16 21 23 20 21 18 23 25 25 21 19 23 22 19 20 22 19 23 20 20 21 21 19 21 23 23 22 23 20 21 21 22 25 23 22 21 28 25 30 22 33 28 30 30 26 29 27 25 23 23 23 23 23 21 26 29 21 23 22 26 25 24 23 25 22 23 25 23 23 23 24 23 25 23 21 23 26 22 25 21 25 23 23 23 22 5 4 7 7 6 10 6 6 10 7 11 5 6 6 5 24 10 7 9 6 7 14 10 10 4 8 7 5 7 7 9 17 7 7 6 12 15 9 7 5 6 5 11 7 13 5 7 8 3 8 0 4 5 6 3 7 6 6 5 5 14 8 5 4 6 4 9 8 6 11 11 6 8 14 8 7 -9999 -9999 -9999 -9999 -9999
-9999 -9999 -9999 5 11 16 11 6 11 15 11 24 20 18 7 19 13 15 18 18 17 8 18 18 16 17 24 3 9 17 16 19 16 20 19 22 18 21 20 22 22 23 21 22 22 22 21 22 17 22 17 19 19 21 19 21 19 22 23 21 22 20 23 21 14 25 23 21 21 25 31 26 25 22 24 24 22 27 24 18 25 23 25 24 26 23 22 22 21 24 28 26 27 25 23 23 16 23 25 24 25 24 25 23 25 22 22 22 24 23 27 25 23 26 24 25 25 14 6 6 6 6 7 6 6 7 7 6 7 8 7 5 7 14 16 6 22 28 6 3 5 7 9 7 5 6 5 9 16 17 7 14 9 13 11 9 9 13 6 5 6 6 13 5 5 5 5 6 5 5 5 5 4 0 5 7 7 6 6 5 7 11 9 6 9 15 7 6 6 16 8 9 9 13 -9999 -9999 -9999 -9999 -9999
-9999 -9999 -9999 7 5 4 9 9 12 10 18 23 20 16 19 11 21 7 16 16 12 12 17 22 19 22 17 17 6 19 19 21 18 19 19 22 20 21 20 20 16 17 16 22 21 21 19 18 18 19 20 23 21 19 19 21 19 19 18 21 18 22 20 18 25 22 26 20 21 24 27 24 27 23 23 23 21 21 18 22 25 25 27 25 26 22 23 19 22 22 26 22 24 23 23 22 17 25 25 23 23 18 24 31 28 25 24 25 26 24 23 25 24 25 25 24 8 14 5 4 6 6 6 0 4 5 5 8 6 14 11 6 6 9 16 5 20 19 11 5 5 6 6 11 6 10 5 8 10 8 6 13 11 8 10 6 5 5 5 7 9 7 6 6 6 6 11 10 4 11 5 5 6 3 0 4 6 5 6 6 7 5 7 5 7 4 7 10 6 6 5 6 5 6 -9999 -9999 -9999 -9999 -9999
-9999 -9999 -9999 6 13 6 5 19 22 20 19 18 24 16 19 12 7 14 14 14 14 15 16 21 22 17 20 16 8 7 16 18 17 19 20 17 18 23 21 19 18 18 22 18 21 20 18 23 22 21 21 22 17 19 19 21 20 23 23 20 21 25 23 16 26 23 23 24 25 22 27 25 23 22 21 23 24 25 22 25 24 24 27 23 28 22 22 23 23 25 20 23 18 23 22 22 23 24 21 23 22 20 16 25 25 29 27 27 28 24 29 24 24 27 27 25 7 10 7 10 7 23 22 18 3 8 9 10 15 10 6 9 10 8 7 10 7 15 8 9 6 7 6 7 7 7 9 12 6 7 14 8 5 10 8 8 8 10 13 14 8 3 6 3 4 6 6 8 5 6 6 7 3 5 0 5 4 3 8 7 9 6 7 10 6 9 5 6 4 5 3 6 5 4 -9999 -9999 -9999 -9999 -9999
-9999 -9999 -9999 4 10 19 14 19 14 16 21 12 17 18 6 13 17 11 11 11 7 10 22 23 9 11 20 19 11 17 8 7 13 20 20 11 20 19 22 19 20 23 25 26 17 23 22 19 23 21 21 16 19 21 23 22 23 16 21 21 23 23 22 22 28 22 22 25 25 25 24 23 22 25 22 23 25 25 24 25 24 25 24 22 25 26 24 24 24 22 22 24 21 22 22 24 22 21 23 22 21 23 23 22 23 25 23 25 25 23 27 23 24 23 28 26 6 18 5 7 8 7 11 17 9 6 6 4 6 7 6 8 8 10 14 7 6 4 6 8 7 5 6 7 7 7 6 6 6 7 5 5 7 11 6 7 8 6 11 27 9 7 10 4 5 5 10 11 6 7 5 7 11 5 6 4 5 5 4 4 5 5 6 7 4 6 6 7 7 6 12 6 5 7 -9999 -9999 -9999 -9999 -9999
-9999 -9999 -9999 6 11 8 9 21 7 11 9 13 19 22 17 5 10 6 6 6 9 17 17 21 9 5 11 19 20 16 16 11 8 18 18 21 18 18 23 20 18 6 20 25 27 22 20 20 25 18 23 24 24 21 23 23 23 25 27 31 23 22 25 31 25 25 25 27 25 25 22 25 23 27 20 24 23 23 24 25 19 23 24 24 26 26 23 23 23 22 20 22 23 16 23 23 19 23 22 22 21 23 22 17 22 23 25 25 25 24 23 23 23 22 22 19 8 22 6 6 14 6 8 14 21 21 7 7 7 6 9 5 8 16 10 6 7 6 6 5 6 7 7 7 4 9 9 5 7 6 7 7 9 6 6 6 5 5 5 17 6 5 6 5 16 5 6 6 5 6 9 5 5 5 5 6 7 5 5 0 5 6 11 4 7 7 6 8 6 6 5 6 5 6 -9999 -9999 -9999 -9999 -9999
-9999 -9999 -9999 12 10 8 18 19 19 6 12 16 16 21 20 17 20 4 12 12 16 21 9 17 18 14 21 12 9 7 13 18 10 17 20 21 16 21 23 19 19 7 25 21 26 23 18 18 23 17 23 23 21 24 20 23 26 27 26 28 25 26 27 27 25 28 30 28 30 25 22 27 25 23 23 23 22 23 25 21 19 24 19 25 26 26 26 25 27 22 22 22 25 22 19 23 22 23 22 23 23 23 23 11 20 23 25 21 23 25 20 21 23 23 17 10 12 14 6 8 19 6 8 9 9 8 6 0 4 6 7 8 6 16 4 6 8 7 9 6 13 9 7 6 7 6 9 8 6 5 6 7 15 9 10 6 5 5 6 5 6 9 5 6 7 9 5 6 6 5 6 6 6 4 4 9 6 6 5 5 8 6 11 5 5 3 6 3 5 5 7 6 6 8 -9999 -9999 -9999 -9999 -9999
-9999 -9999 -9999 14 17 16 17 10 16 9 14 22 18 23 20 17 14 4 12 12 21 20 7 12 18 16 21 7 6 6 18 16 21 22 24 21 22 18 20 19 22 16 22 22 25 17 19 19 18 22 20 18 23 20 20 22 25 27 25 23 22 28 28 26 18 27 31 28 27 30 31 30 25 25 24 22 25 24 20 13 14 21 19 24 24 24 26 24 24 22 21 22 24 22 21 23 19 23 22 23 23 22 22 21 14 16 16 28 24 23 18 23 17 21 19 6 7 6 4 7 18 5 5 3 5 7 7 6 8 4 9 6 8 15 12 5 6 7 12 6 5 20 9 11 13 6 6 8 6 6 6 10 11 7 7 5 5 5 0 3 5 7 6 7 3 4 5 4 6 6 6 6 4 7 7 7 4 5 7 6 4 6 10 5 7 0 0 4 5 5 5 7 10 10 -9999 -9999 -9999 -9999 -9999
-9999 -9999 -9999 11 14 17 22 23 20 25 16 10 7 15 6 11 12 11 9 9 15 16 14 12 18 20 16 9 10 7 10 17 19 19 17 10 17 9 19 20 21 17 23 23 22 22 19 20 18 21 22 21 20 19 26 23 26 27 23 23 25 21 27 25 24 27 27 31 31 24 29 27 27 22 23 23 22 22 23 16 16 12 18 18 9 27 24 24 18 24 25 21 22 23 18 23 20 22 25 23 22 23 23 22 19 23 23 25 25 23 23 22 25 22 28 10 4 8 0 5 11 6 0 3 7 14 16 10 13 5 18 6 10 21 16 7 7 9 20 6 7 4 11 11 8 10 18 17 17 6 7 18 11 7 7 6 7 6 6 5 5 7 7 8 8 5 5 5 3 7 7 6 6 6 10 6 6 7 5 6 7 5 6 7 6 6 3 4 10 8 4 3 9 6 -9999 -9999 -9999 -9999 -9999
-9999 -9999 -9999 6 14 22 18 18 20 11 6 9 7 7 20 7 0 19 14 14 8 14 7 10 13 22 13 10 11 6 10 8 18 18 17 19 21 20 19 23 21 25 26 20 21 19 21 22 23 21 21 23 16 19 20 23 29 29 22 23 22 22 22 23 25 25 24 31 27 26 26 25 25 19 23 22 22 19 20 8 6 7 15 6 8 9 22 22 22 21 25 24 22 16 7 14 22 9 20 23 23 23 24 25 23 24 28 24 24 23 27 22 23 22 21 6 6 8 4 5 6 3 12 15 7 11 10 11 6 9 13 6 8 12 13 10 17 14 9 8 11 11 14 6 15 17 11 12 11 7 6 6 10 7 9 6 6 3 0 5 8 8 6 7 7 7 7 6 6 5 7 6 5 4 5 5 5 7 6 6 6 8 9 8 5 5 5 7 8 7 7 4 5 6 -9999 -9999 -9999 -9999 -9999
-9999 -9999 -9999 16 20 9 5 9 21 22 20 19 14 16 17 16 9 4 17 17 18 7 11 5 8 6 8 19 21 13 17 15 16 13 20 20 23 21 20 20 19 23 27 16 17 19 23 22 22 21 21 26 21 18 22 28 25 23 21 25 23 22 23 25 25 23 25 22 24 24 16 22 23 23 19 23 23 12 7 7 7 7 6 9 9 12 9 14 22 22 15 21 25 16 6 7 7 7 15 22 22 20 25 27 27 25 26 25 27 27 24 24 24 23 15 10 7 8 7 8 7 15 16 17 8 7 10 5 17 9 9 8 9 8 15 11 15 11 8 6 6 23 11 10 11 10 8 15 14 5 10 9 6 7 13 10 14 3 6 6 5 6 5 3 8 8 5 4 5 6 0 4 4 6 6 8 4 7 5 4 6 5 6 8 6 3 6 6 14 6 5 6 5 5 -9999 -9999 -9999 -9999 -9999
-9999 -9999 -9999 11 7 10 8 5 4 0 0 3 12 17 18 15 18 4 15 15 8 12 11 5 9 9 18 16 20 15 17 19 19 18 18 18 21 19 12 19 17 21 26 7 19 20 21 21 22 22 21 22 25 21 17 25 25 23 21 21 25 23 25 29 21 23 22 23 23 27 18 23 23 25 23 16 14 19 11 8 7 9 8 7 8 12 17 23 24 21 15 12 11 8 8 6 7 6 6 6 6 18 23 26 23 21 21 24 22 20 23 24 31 23 20 13 18 10 18 9 14 23 17 8 14 9 10 10 12 17 14 10 9 8 9 11 21 11 13 7 6 8 18 17 25 10 7 14 13 8 7 9 4 8 6 7 15 5 7 14 5 9 9 13 6 5 7 4 6 6 4 6 4 6 8 6 5 6 4 5 3 6 5 13 6 6 5 5 6 4 4 8 6 5 -9999 -9999 -9999 -9999 -9999
-9999 -9999 -9999 7 17 17 7 5 4 4 5 0 10 20 17 14 14 14 15 15 7 16 11 13 16 18 20 21 17 14 16 23 21 19 19 19 21 19 16 20 20 20 20 13 22 20 22 22 23 22 22 23 27 23 23 29 23 22 25 21 27 27 25 30 25 23 25 17 19 27 26 26 23 25 18 12 11 11 15 15 14 13 12 12 7 10 21 12 24 11 6 10 6 7 6 6 7 5 11 8 16 17 22 27 24 23 25 21 21 21 16 7 23 24 22 19 18 9 12 11 9 7 10 16 14 14 12 14 14 6 16 13 15 12 6 9 10 7 10 7 12 6 9 21 9 15 9 9 6 8 7 11 11 10 5 12 10 6 8 6 9 7 6 6 6 5 9 5 6 5 8 6 6 6 5 3 5 6 4 5 5 5 4 4 6 5 7 5 5 5 6 6 6 6 -9999 -9999 -9999 -9999 -9999
-9999 -9999 -9999 7 9 9 8 8 7 13 5 4 0 15 16 17 7 6 7 7 15 18 15 18 19 21 18 18 15 16 16 22 19 19 21 17 23 21 21 19 20 24 24 16 20 18 21 20 21 21 22 21 23 22 21 28 24 24 29 28 26 27 26 32 24 25 24 23 24 25 23 25 23 23 22 10 6 7 8 17 15 10 7 6 7 9 9 7 6 14 6 6 6 6 6 9 7 7 9 10 24 27 12 23 21 24 22 21 17 22 5 8 9 17 11 8 9 14 7 11 11 16 9 11 15 4 7 12 8 10 6 17 7 8 8 10 9 6 9 7 16 10 15 13 11 4 7 7 7 4 6 11 10 18 12 3 0 5 8 10 0 12 9 9 5 6 4 6 8 12 11 5 6 5 5 5 5 6 6 5 5 6 6 5 7 5 5 5 5 6 8 8 6 5 -9999 -9999 -9999 -9999 -9999
-9999 -9999 -9999 8 5 20 6 5 12 10 6 4 5 0 11 17 15 3 7 7 19 19 16 17 21 21 21 20 23 19 13 12 13 21 19 21 23 15 18 19 16 20 23 21 25 21 19 19 25 25 23 27 27 14 26 25 26 21 29 30 28 25 32 30 33 27 23 23 23 24 16 11 16 24 22 9 9 11 13 16 11 13 16 7 7 8 7 9 6 7 4 5 6 6 7 7 8 12 13 9 7 10 23 15 15 18 23 13 6 18 7 6 7 8 5 6 6 19 11 8 10 17 11 16 13 5 13 13 12 8 7 10 11 10 11 7 6 11 6 7 7 10 10 6 4 5 7 14 8 4 8 12 5 6 5 5 8 6 7 9 4 5 5 11 5 5 5 6 3 6 6 4 3 6 4 13 3 12 6 10 10 6 6 5 3 7 4 6 5 6 7 7 6 5 -9999 -9999 -9999 -9999 -9999
-9999 -9999 -9999 15 9 10 21 11 5 13 7 5 15 6 16 6 4 6 4 4 5 11 16 16 20 11 19 10 13 16 13 6 14 22 19 22 19 17 21 20 22 20 17 23 22 21 21 20 23 25 22 27 27 24 24 18 28 31 23 31 29 31 29 28 27 22 24 23 23 25 12 4 7 7 6 11 14 10 7 11 7 14 7 5 10 9 13 8 7 12 6 5 5 16 21 8 7 9 9 12 7 5 24 21 22 24 23 15 10 6 5 6 6 6 6 5 8 16 12 8 11 16 9 16 9 6 11 9 14 10 11 6 7 6 6 8 6 18 20 11 10 5 8 10 8 6 14 8 5 6 5 5 7 7 10 6 7 8 15 6 5 5 6 4 6 8 4 5 4 5 6 5 7 10 5 7 5 5 5 6 8 6 4 5 5 6 5 9 6 6 5 8 5 5 -9999 -9999 -9999 -9999 -9999
-9999 -9999 -9999 25 10 7 5 6 7 7 6 6 15 12 16 11 5 12 16 16 20 17 4 9 19 13 21 19 18 19 20 20 16 21 16 20 22 17 20 22 20 20 22 19 21 19 20 23 22 19 20 27 27 30 27 23 27 25 25 27 29 31 31 26 25 25 26 27 24 24 8 7 11 11 8 8 6 7 8 10 11 5 6 6 9 11 10 10 10 8 7 6 10 7 8 6 10 6 12 6 12 5 5 10 22 23 22 19 21 22 16 16 8 7 5 8 6 12 9 12 13 8 10 16 8 7 5 0 9 8 9 9 6 9 6 21 7 9 19 17 17 20 18 14 7 8 16 5 6 6 6 8 5 6 6 4 7 11 14 11 7 10 9 5 6 5 9 5 12 14 6 5 6 7 5 5 6 6 5 5 7 7 6 7 6 5 8 12 8 6 6 5 5 4 -9999 -9999 -9999 -9999 -9999
-9999 -9999 -9999 22 4 10 7 22 18 17 17 11 12 13 10 8 7 7 0 0 12 20 15 5 11 13 20 17 21 16 17 16 19 20 18 19 18 18 11 22 18 20 8 25 22 22 22 21 20 18 21 18 21 23 25 23 27 28 26 27 29 29 23 25 26 25 18 22 23 21 13 10 6 7 6 17 16 7 6 8 9 8 8 8 7 6 7 11 15 9 9 7 13 8 12 10 7 9 9 7 10 6 6 6 10 21 18 20 22 16 13 13 9 14 8 7 12 9 6 11 14 18 13 15 7 9 14 8 4 7 15 10 10 7 8 10 10 7 10 10 7 18 20 11 5 5 18 7 6 6 7 7 8 8 8 6 7 10 7 8 6 12 8 7 5 7 6 6 5 6 5 5 5 11 7 6 5 15 7 6 6 6 5 11 11 7 14 9 19 8 5 4 6 6 -9999 -9999 -9999 -9999 -9999
-9999 -9999 -9999 9 5 6 13 15 8 10 5 6 6 18 18 21 22 15 6 6 17 16 18 19 18 17 19 15 13 19 15 21 24 21 22 23 18 7 10 16 11 8 7 22 23 20 23 19 23 18 23 23 21 21 22 23 22 23 27 28 24 30 24 26 23 23 23 20 17 25 22 24 18 9 15 23 11 8 7 6 8 7 6 7 15 6 7 6 5 5 4 9 7 5 9 9 10 7 5 8 10 10 7 8 5 6 6 8 14 7 15 6 12 13 9 7 16 11 13 7 13 12 18 8 10 8 11 8 6 10 8 10 9 9 6 8 16 14 8 7 6 18 17 13 11 10 6 7 6 7 7 10 7 5 5 6 7 24 20 21 7 8 19 10 6 7 6 6 17 7 4 6 6 6 15 6 6 6 0 5 8 14 5 14 10 8 9 9 12 15 5 7 6 6 -9999 -9999 -9999 -9999 -9999
-9999 -9999 -9999 19 16 4 15 12 5 18 8 12 16 18 15 19 18 17 8 8 9 17 20 21 18 16 16 16 20 18 16 19 10 12 13 13 18 23 16 15 12 19 9 17 19 20 22 19 20 23 21 25 21 21 25 25 21 23 26 23 22 25 24 22 24 23 27 22 23 17 25 21 22 16 15 24 23 21 13 7 7 21 6 5 6 7 6 7 10 4 6 11 7 5 6 7 7 12 8 12 7 6 7 5 6 8 11 6 14 9 8 11 8 9 6 11 7 9 11 7 14 15 9 12 7 15 10 12 11 6 6 9 9 10 8 11 17 8 8 6 7 11 18 10 10 5 5 5 6 6 7 7 5 5 6 9 9 23 8 3 10 8 9 15 10 5 6 8 6 6 5 6 4 5 11 6 9 4 4 6 7 11 5 5 6 9 16 6 5 12 5 9 5 6 -9999 -9999 -9999 -9999 -9999
-9999 -9999 -9999 7 23 7 21 7 16 10 18 11 17 17 15 19 17 20 18 18 17 18 20 19 18 20 19 13 15 19 22 21 17 21 22 19 21 19 23 20 19 17 9 16 21 19 22 22 24 22 27 21 20 19 23 25 20 26 26 23 26 25 25 24 22 23 24 23 25 23 24 22 23 23 25 22 24 26 23 8 7 14 5 6 7 11 7 13 6 11 12 13 15 7 7 7 10 7 7 8 7 6 6 17 6 6 8 16 14 11 7 6 8 15 6 6 14 10 5 10 11 15 5 7 14 8 10 17 8 7 16 24 18 7 13 7 8 6 7 9 4 9 16 15 20 11 7 7 6 5 10 7 6 5 5 8 7 12 10 5 13 10 13 6 6 8 5 6 6 6 6 7 5 6 6 6 5 5 5 6 5 7 5 6 6 11 13 11 6 11 5 9 5 5 -9999 -9999 -9999 -9999 -9999
-9999 -9999 -9999 11 21 13 25 20 17 19 12 9 14 16 12 16 17 22 14 14 17 14 16 19 22 21 19 18 20 21 18 22 18 19 22 16 13 19 21 19 21 21 22 19 20 23 22 23 23 14 21 22 21 23 30 26 21 26 32 25 22 21 23 22 23 22 22 25 23 23 23 22 23 24 21 25 22 19 17 8 9 8 8 6 4 6 7 8 6 11 9 6 6 8 7 8 7 8 6 7 10 7 7 9 11 9 8 6 6 8 16 6 10 12 13 6 9 15 11 6 11 12 8 8 7 9 5 15 14 10 6 9 10 6 13 6 7 13 8 8 9 11 11 6 11 11 7 6 16 8 18 11 9 6 6 5 8 7 6 9 8 8 11 11 6 7 8 6 6 5 5 5 6 5 6 6 4 4 6 6 8 5 7 5 6 6 5 7 5 5 5 6 6 5 -9999 -9999 -9999 -9999 -9999
-9999 -9999 -9999 17 17 11 12 19 21 17 15 5 6 10 5 5 5 14 12 12 8 13 19 21 17 19 16 18 20 18 17 20 16 17 16 20 20 19 20 21 19 21 18 18 20 20 21 21 23 22 23 23 23 25 24 29 19 25 28 22 23 25 22 23 23 22 22 21 23 25 27 22 23 22 21 25 18 19 4 9 13 5 8 6 6 7 7 16 10 7 6 14 16 11 11 8 13 7 6 13 13 10 12 9 6 7 6 7 6 6 6 6 6 6 8 10 7 6 8 7 17 8 6 5 8 5 12 7 7 10 6 10 7 7 6 7 8 17 7 8 7 7 8 6 6 7 7 7 9 10 6 7 7 7 7 5 6 7 7 5 9 4 13 14 7 11 9 12 8 4 6 6 6 6 5 4 5 6 7 6 7 5 6 6 8 7 9 7 5 5 5 4 9 6 -9999 -9999 -9999 -9999 -9999
-9999 -9999 -9999 20 7 9 16 6 6 10 17 7 10 11 8 5 16 16 11 11 8 0 13 18 18 16 16 18 19 16 17 15 15 21 20 16 18 10 21 22 19 20 11 16 21 23 22 22 23 25 23 21 22 24 25 23 25 23 25 22 26 22 23 23 23 20 23 21 20 18 24 23 22 21 19 19 3 6 6 7 6 6 6 6 6 6 7 10 7 9 9 6 6 9 8 12 11 14 7 7 7 9 10 9 6 7 12 8 6 16 9 10 6 6 6 7 8 7 6 14 21 16 8 6 13 5 5 9 6 10 5 7 8 6 6 6 7 10 7 7 7 6 10 7 5 6 6 6 6 7 5 7 7 9 13 11 6 6 9 8 14 6 3 12 8 7 11 7 7 5 9 8 4 8 7 6 6 5 6 8 9 4 5 6 6 17 7 8 18 6 6 5 5 5 -9999 -9999 -9999 -9999 -9999
-9999 -9999 -9999 12 16 22 17 7 7 6 9 19 16 14 19 16 15 14 9 9 8 0 9 13 18 17 17 19 19 18 10 20 17 20 22 22 22 22 23 21 21 20 9 18 19 26 26 26 20 22 23 25 23 23 26 26 22 23 23 24 22 23 23 22 23 21 22 21 22 22 20 23 18 21 13 6 7 10 15 5 6 8 6 7 7 6 6 15 13 6 6 5 6 5 9 6 6 6 14 12 6 13 7 11 14 7 11 10 10 14 17 9 6 6 8 5 7 8 11 7 7 15 10 11 6 14 8 6 12 4 7 9 16 14 12 7 6 6 8 7 7 8 6 6 6 17 6 7 7 6 10 8 6 13 9 9 8 8 7 16 6 13 7 6 6 7 6 10 10 7 6 6 8 14 12 13 10 5 9 8 5 6 6 9 7 6 6 10 5 6 5 6 4 0 -9999 -9999 -9999 -9999 -9999
-9999 -9999 -9999 19 22 19 13 13 11 6 7 11 17 19 21 17 13 5 10 10 7 6 16 19 22 18 18 19 19 20 22 19 18 20 22 25 21 19 16 18 16 16 20 18 23 22 20 19 23 21 19 23 25 24 27 23 25 23 24 21 22 21 23 22 24 23 21 23 21 19 18 18 16 9 11 16 5 7 7 6 6 4 8 6 6 6 6 7 11 6 8 8 6 8 12 6 7 6 7 5 5 6 9 10 14 9 6 6 6 16 14 7 11 5 5 9 10 13 6 11 6 16 6 5 5 6 13 7 20 6 7 21 17 7 7 10 7 6 9 6 5 6 5 6 17 28 6 10 11 16 9 7 6 7 8 7 16 8 16 12 7 6 5 4 5 7 6 10 19 6 9 9 5 5 6 6 13 5 6 9 5 0 6 7 7 10 8 6 4 5 8 5 6 7 4 -9999 -9999 -9999 -9999
-9999 -9999 -9999 20 25 22 21 16 16 9 13 4 4 4 17 21 9 4 6 6 13 10 11 16 17 22 22 19 19 18 20 17 18 21 19 23 17 18 20 19 10 17 18 21 22 23 22 23 22 18 19 24 25 26 25 23 25 22 25 25 26 27 25 24 24 25 24 24 19 22 26 8 9 7 7 6 7 11 8 7 7 5 5 6 15 6 6 7 22 9 6 4 7 17 8 8 6 8 10 6 6 7 6 7 9 15 18 6 6 15 6 11 10 11 6 6 6 16 9 14 9 15 9 9 8 6 13 6 15 4 6 7 22 20 7 9 7 6 3 3 6 6 6 8 15 29 22 11 8 13 15 6 7 7 13 10 7 9 7 8 7 5 5 5 5 7 6 8 13 5 7 5 7 9 6 8 7 5 5 5 6 13 10 6 7 11 7 6 5 5 9 10 6 5 6 -9999 -9999 -9999 -9999
-9999 -9999 -9999 -9999 7 17 19 9 11 7 20 7 6 7 11 11 10 4 17 17 21 19 20 17 21 21 22 19 24 18 22 20 23 21 21 20 18 21 19 18 17 19 23 21 23 21 21 21 21 22 22 21 22 22 28 25 26 25 25 19 23 21 20 23 22 22 23 29 25 25 23 21 16 6 16 6 6 7 10 9 5 5 6 5 5 6 6 7 14 9 6 8 6 10 8 10 6 6 10 11 8 7 3 6 6 8 8 5 8 20 18 7 14 16 7 6 6 10 13 8 6 10 6 8 12 6 7 9 14 7 8 19 11 10 5 4 5 6 5 7 6 7 8 17 11 22 20 21 6 6 6 10 6 7 10 7 14 12 8 7 3 6 5 8 5 6 5 12 7 6 7 6 6 12 8 9 6 4 10 8 5 11 9 7 6 8 6 14 5 5 7 8 13 9 12 -9999 -9999 -9999 -9999
-9999 -9999 -9999 -9999 11 20 24 7 7 6 12 17 14 5 10 7 0 9 15 15 10 14 9 20 21 10 24 22 17 20 24 20 20 19 16 21 20 22 21 15 13 18 21 21 22 23 20 22 21 21 21 22 25 22 25 22 25 25 25 25 29 27 21 23 23 24 22 23 23 19 22 26 19 9 11 6 7 6 6 6 5 5 5 6 5 6 6 9 6 10 7 6 4 11 7 5 7 10 6 16 7 6 5 6 6 6 6 5 8 9 18 16 13 8 7 14 16 9 7 10 8 10 8 8 6 7 8 7 7 9 10 15 17 11 8 8 13 15 7 6 8 7 9 13 19 27 23 25 22 14 6 5 7 8 7 8 6 6 8 8 7 6 7 5 5 8 7 8 9 6 7 8 6 5 7 6 7 4 9 10 6 6 10 7 6 6 11 5 6 5 5 6 11 6 9 -9999 -9999 -9999 -9999
-9999 -9999 -9999 -9999 21 24 19 9 13 13 7 11 8 7 5 7 3 11 19 19 15 17 18 23 10 11 22 25 20 18 22 20 21 18 16 22 23 20 19 20 18 17 21 19 25 23 23 22 23 22 23 23 23 26 22 25 25 23 23 23 25 23 27 23 19 19 23 21 21 25 27 11 12 10 8 6 6 6 5 5 6 6 8 5 6 7 8 6 6 5 6 7 8 8 14 8 7 8 9 6 11 12 11 15 7 6 6 11 7 6 20 15 14 10 9 7 8 8 15 9 10 16 6 10 14 6 6 8 6 17 11 15 17 18 15 8 14 8 7 6 7 7 10 6 11 16 10 8 17 7 10 8 13 12 16 5 7 9 7 7 8 7 8 6 6 5 9 14 8 7 5 8 6 6 6 5 5 6 6 9 6 15 7 6 8 5 7 12 6 6 7 5 5 9 5 -9999 -9999 -9999 -9999
-9999 -9999 -9999 -9999 11 17 12 17 11 10 18 6 10 15 13 10 5 11 17 17 11 9 19 16 15 9 21 22 21 25 24 23 22 21 22 22 21 19 21 22 20 21 20 21 20 22 18 23 23 22 23 25 26 24 23 25 23 25 23 22 23 22 26 23 22 23 26 26 23 24 23 9 21 12 9 6 8 6 7 6 6 6 7 4 11 7 8 7 4 0 7 5 5 5 16 6 14 17 12 10 7 12 7 16 6 6 5 6 8 7 5 15 19 11 15 8 8 6 8 7 8 7 8 12 15 13 9 13 6 4 10 13 16 17 13 12 6 12 10 7 17 17 11 7 6 6 10 5 9 6 8 10 9 7 10 5 6 10 7 8 5 7 7 8 8 7 10 7 6 5 7 7 6 6 6 7 5 5 6 6 5 6 6 9 4 5 10 10 8 13 6 6 6 6 5 -9999 -9999 -9999 -9999
-9999 -9999 -9999 -9999 19 23 19 17 16 17 16 15 16 8 6 14 18 8 14 14 7 8 7 19 10 12 22 18 19 22 25 19 23 21 24 19 25 21 21 22 18 19 20 20 27 25 20 21 23 21 22 23 26 25 23 28 22 27 22 23 23 22 23 23 23 23 23 27 23 26 14 26 10 6 17 7 6 6 4 3 6 6 6 6 6 6 4 6 0 0 6 7 6 6 5 6 6 5 5 11 6 8 7 11 6 8 0 12 13 11 8 7 8 6 16 16 11 15 12 7 9 12 7 8 10 13 6 12 11 6 10 14 11 14 14 11 7 7 8 8 8 16 7 8 6 7 9 5 9 0 9 8 8 7 8 9 6 8 11 5 5 6 10 6 6 7 9 15 4 6 7 7 8 6 6 6 6 6 6 10 5 8 7 7 6 6 6 9 6 6 5 6 6 5 6 -9999 -9999 -9999 -9999
-9999 -9999 -9999 -9999 5 8 7 11 8 18 23 22 21 23 6 8 12 6 4 4 9 17 16 16 16 15 7 20 20 22 22 19 19 23 22 23 21 19 19 16 21 21 21 19 24 25 26 22 22 21 23 22 26 22 33 23 23 18 20 21 23 23 24 19 21 25 25 25 23 26 12 7 10 9 8 7 13 6 5 6 5 6 6 7 6 5 6 5 6 0 9 6 8 6 5 6 4 6 12 13 7 11 8 7 4 5 0 4 9 6 7 7 6 6 16 14 8 9 7 5 6 16 6 10 6 8 6 5 16 6 9 16 19 11 6 11 11 17 6 8 17 6 7 7 6 7 5 6 5 4 5 10 11 7 11 12 12 7 8 6 6 12 7 12 15 8 14 7 6 4 6 8 7 5 6 7 5 7 5 6 5 8 7 5 6 6 6 7 6 7 7 7 8 6 6 -9999 -9999 -9999 -9999
-9999 -9999 -9999 -9999 6 7 7 7 5 6 17 20 23 23 20 17 14 17 9 9 16 14 20 23 8 9 11 19 19 19 22 24 23 21 21 18 20 19 24 22 19 23 21 21 21 25 20 23 18 21 22 23 23 21 24 25 25 23 23 24 24 22 23 26 26 25 23 23 25 32 25 22 9 13 15 7 8 6 6 7 6 6 7 6 8 6 6 5 7 6 9 4 6 7 14 16 6 6 6 12 9 12 10 4 6 6 0 6 7 7 5 9 10 6 8 15 9 7 5 11 12 0 8 10 7 8 10 10 5 14 9 10 10 16 17 11 13 8 7 10 8 6 7 6 5 5 6 7 13 7 8 8 5 9 9 6 5 6 11 8 5 18 14 10 8 14 8 16 4 6 4 6 6 15 8 10 6 7 7 7 9 6 6 6 6 5 5 3 5 6 6 6 9 6 5 -9999 -9999 -9999 -9999
-9999 -9999 -9999 -9999 17 17 19 8 7 9 21 13 17 16 17 21 18 20 22 22 19 18 24 23 16 16 8 22 25 14 22 25 23 21 20 18 22 21 20 20 19 20 20 19 19 25 19 21 25 26 23 26 20 22 30 27 26 23 25 26 26 24 27 23 25 12 11 8 23 28 26 22 7 6 19 6 9 6 7 6 6 5 5 6 7 6 8 10 8 6 10 9 7 11 7 10 5 0 14 5 7 13 12 7 9 7 11 0 5 7 8 6 11 10 8 3 7 4 3 9 3 6 4 7 6 9 7 7 14 11 7 7 10 10 17 13 25 7 5 6 19 8 6 7 5 5 5 6 6 6 7 10 10 5 7 6 4 7 6 4 8 5 6 6 16 11 8 21 17 9 5 7 5 7 9 9 8 10 6 6 8 12 7 6 6 5 6 6 6 6 7 6 6 7 6 -9999 -9999 -9999 -9999
-9999 -9999 -9999 -9999 12 12 17 10 6 5 13 18 16 8 19 9 9 6 17 17 23 19 11 23 20 18 17 18 21 22 8 12 20 22 21 19 21 21 22 21 20 22 19 23 22 23 19 23 25 23 23 23 22 22 31 31 30 32 25 26 23 26 26 17 27 18 16 8 9 20 10 23 24 26 7 11 7 10 27 12 6 6 3 3 6 6 6 9 7 8 13 7 6 9 10 10 6 9 7 7 7 6 7 6 6 7 3 4 3 10 9 7 6 7 5 7 9 6 7 5 7 10 13 12 8 8 7 6 8 16 11 15 7 4 14 6 10 8 8 8 9 10 10 9 8 6 9 5 5 6 6 5 7 7 9 9 5 5 6 5 5 6 7 12 9 18 9 8 17 5 6 7 5 6 6 6 5 5 6 10 6 14 6 16 6 5 6 8 7 6 6 7 5 7 6 -9999 -9999 -9999 -9999
-9999 -9999 -9999 -9999 7 21 18 8 5 5 5 7 8 11 20 6 17 13 17 17 22 22 21 23 23 7 16 9 17 12 17 14 10 18 21 22 20 23 21 22 19 22 22 24 20 21 20 22 22 23 22 21 22 23 28 28 30 27 23 22 26 26 9 23 24 23 8 18 9 18 23 17 24 26 5 12 7 10 11 12 14 7 5 6 8 8 5 7 9 7 6 7 13 6 6 8 10 6 11 7 8 6 7 6 6 13 6 4 6 7 8 7 6 7 7 11 5 8 3 3 8 0 7 10 8 13 10 5 5 8 20 20 13 8 16 12 8 5 12 7 7 7 9 7 8 7 9 5 7 5 7 7 6 6 6 5 5 4 6 6 8 6 7 8 13 11 13 7 6 7 6 8 6 11 4 9 8 7 7 6 7 6 6 6 5 5 6 9 8 7 6 7 6 6 5 -9999 -9999 -9999 -9999
-9999 -9999 -9999 -9999 18 23 19 7 6 8 7 20 11 7 11 19 10 21 6 6 19 21 22 20 22 8 4 0 11 16 13 12 11 10 21 21 21 22 20 21 22 21 20 22 22 23 25 24 25 24 21 21 21 25 27 26 29 22 27 24 26 9 26 26 26 26 18 18 21 11 25 14 8 26 12 6 5 4 26 22 6 7 6 5 5 6 5 5 6 6 8 6 10 14 6 7 8 6 8 10 16 9 11 7 9 10 6 6 14 10 5 6 6 12 9 6 4 4 5 5 3 8 16 11 15 9 15 8 7 8 8 7 19 12 7 10 5 10 10 7 15 5 10 8 9 7 6 6 5 6 5 11 11 7 7 7 5 8 9 8 9 11 6 6 6 15 6 8 8 7 7 13 6 7 10 7 5 9 7 6 5 6 5 8 9 8 6 6 7 8 6 7 4 8 7 -9999 -9999 -9999 -9999
-9999 -9999 -9999 -9999 10 16 17 18 20 15 22 8 7 11 19 20 17 9 20 20 16 19 23 13 16 22 13 0 0 9 19 12 15 13 10 19 19 21 22 23 23 21 23 21 23 23 23 25 21 23 22 22 22 24 25 27 26 22 24 31 21 24 22 25 25 25 26 27 27 8 8 14 7 9 7 7 4 3 12 7 6 5 4 6 6 6 7 6 5 5 5 6 6 8 6 5 7 6 6 8 9 6 7 7 5 6 9 9 6 10 6 6 6 3 5 3 6 9 7 7 3 7 8 6 9 12 7 8 7 9 7 8 10 15 6 8 8 10 15 5 8 5 8 11 7 9 23 5 6 5 7 7 11 8 8 10 9 7 4 6 7 7 11 8 8 6 4 7 16 6 8 12 8 4 6 13 14 14 9 9 5 6 15 5 7 8 7 6 8 6 6 6 4 5 6 -9999 -9999 -9999 -9999
-9999 -9999 -9999 -9999 10 16 24 19 19 10 21 7 11 7 17 7 12 9 21 21 9 5 10 11 18 6 7 3 0 14 19 7 9 24 10 10 23 23 21 22 20 22 22 22 22 23 22 28 27 19 21 23 25 27 24 26 23 23 26 27 22 25 25 21 25 28 25 26 28 10 9 5 5 7 10 10 5 6 6 4 0 5 0 6 5 5 10 6 5 6 5 7 7 7 7 6 14 7 5 6 7 6 6 6 6 6 13 17 7 7 9 15 6 0 7 12 9 6 7 7 6 6 6 10 7 3 14 8 6 8 9 7 10 10 7 7 7 9 13 4 6 6 7 6 18 10 16 6 6 7 7 7 7 6 7 7 13 4 7 6 5 8 7 11 10 9 7 6 6 6 8 20 7 6 5 5 8 7 5 12 11 7 14 8 6 6 6 6 7 12 7 6 7 6 6 -9999 -9999 -9999 -9999
-9999 -9999 -9999 -9999 9 16 19 18 22 25 19 14 16 7 16 12 15 25 19 19 8 7 8 10 9 7 14 8 6 3 0 9 16 5 9 14 25 23 21 22 22 23 22 22 21 23 30 26 27 22 23 20 29 27 25 23 23 26 28 19 23 23 27 26 27 26 23 23 26 24 14 6 25 24 26 17 5 4 14 6 6 4 5 6 3 5 7 7 4 7 7 6 4 7 6 6 6 13 7 6 3 8 6 11 6 6 8 9 12 6 6 6 6 8 6 10 13 7 6 9 6 6 6 5 6 6 15 9 6 5 7 10 7 7 15 7 7 12 13 6 5 9 8 3 12 10 17 16 14 5 6 6 11 6 6 7 8 8 7 7 6 6 7 7 7 5 4 7 5 6 6 9 7 7 7 6 6 8 7 6 6 10 8 7 7 6 6 8 6 7 17 5 6 5 7 -9999 -9999 -9999 -9999
-9999 -9999 -9999 -9999 17 16 17 20 25 12 7 17 22 20 7 10 17 8 8 8 13 10 25 22 14 18 12 7 5 5 3 7 7 6 12 17 25 23 19 25 22 19 21 21 25 26 23 22 23 22 21 27 20 25 23 29 22 17 14 23 27 23 22 26 22 23 23 24 25 21 24 18 22 25 24 31 28 7 8 5 6 6 6 5 6 5 12 7 11 10 12 6 6 6 5 5 6 12 8 6 7 15 5 9 6 6 6 9 7 13 0 5 6 5 4 6 7 6 11 10 6 9 7 8 6 6 7 6 6 6 6 8 6 9 6 7 16 19 10 6 10 6 6 6 7 17 15 11 17 5 7 7 10 10 6 10 5 6 6 7 5 7 6 10 5 7 6 6 7 7 9 14 8 7 6 12 7 6 6 8 7 5 7 3 7 6 6 7 6 6 6 8 6 6 5 -9999 -9999 -9999 -9999
-9999 -9999 -9999 -9999 20 6 19 18 27 10 9 22 11 10 11 10 11 9 6 6 16 10 18 8 15 20 19 7 10 5 3 10 7 12 12 17 23 25 16 22 19 21 19 22 25 26 23 18 22 20 21 27 25 31 27 22 22 21 23 21 27 23 24 22 22 21 23 25 23 23 24 24 25 23 23 26 9 16 19 6 6 5 5 6 7 7 7 6 5 14 16 6 6 5 6 5 6 7 8 6 6 5 10 6 6 8 23 8 8 11 7 7 6 5 6 5 7 9 6 6 6 7 9 6 9 9 6 12 5 6 0 14 10 6 7 7 10 7 9 9 8 6 10 7 6 7 16 17 16 6 11 10 8 10 7 6 5 6 7 7 9 6 6 6 11 10 7 12 7 7 6 7 7 5 6 6 7 6 6 6 7 7 5 4 7 7 6 5 5 5 4 8 8 8 0 -9999 -9999 -9999 -9999
-9999 -9999 -9999 -9999 7 5 20 18 22 23 15 9 6 7 8 12 10 13 7 7 7 11 22 9 16 17 24 6 5 11 6 6 8 6 24 17 19 18 8 20 18 19 18 22 19 26 22 28 24 21 21 26 22 26 28 22 23 23 20 18 26 24 23 22 22 21 25 25 23 22 25 25 23 24 23 15 10 14 12 7 6 7 5 6 6 6 5 6 6 10 8 6 6 6 8 8 6 7 6 11 14 7 5 12 7 14 6 17 11 12 6 8 7 6 6 7 7 7 8 7 6 6 6 7 11 6 6 6 6 6 6 0 8 7 7 8 7 7 11 14 8 8 10 7 7 6 8 16 15 6 6 9 6 5 7 6 6 5 6 6 6 6 6 6 6 7 17 10 8 10 5 6 7 10 9 4 6 7 12 6 6 6 7 5 3 7 8 6 6 8 6 5 4 0 0 -9999 -9999 -9999 -9999
-9999 -9999 -9999 -9999 8 6 8 19 21 14 6 8 7 11 16 15 16 14 7 7 12 12 15 7 16 15 22 6 6 9 10 5 7 21 22 26 20 22 21 26 23 21 19 21 22 22 27 29 26 20 22 25 27 24 27 24 6 25 23 20 22 28 28 23 24 22 25 24 23 21 23 25 23 22 27 26 15 19 7 6 10 7 5 6 6 6 7 8 10 7 12 5 8 5 6 6 6 5 6 13 9 17 6 6 12 14 11 9 11 12 5 15 13 10 6 7 7 9 6 5 7 7 6 9 9 5 3 5 6 6 7 6 3 12 6 7 7 7 7 18 7 7 10 8 6 17 16 10 6 12 6 6 8 5 6 14 7 10 6 5 9 6 6 7 6 6 18 8 18 11 9 9 7 9 6 14 8 7 15 15 8 6 13 6 5 4 7 6 7 6 5 5 4 4 6 -9999 -9999 -9999 -9999
-9999 -9999 -9999 -9999 20 20 19 21 21 15 5 8 11 14 8 19 23 24 19 19 16 16 11 6 12 7 7 9 3 6 10 6 16 21 6 14 22 21 24 22 27 22 23 22 19 20 20 23 25 25 25 4 10 15 9 28 23 23 23 26 27 24 26 26 26 29 27 31 28 25 27 23 23 24 26 25 25 27 33 6 6 9 22 6 6 6 8 6 7 11 13 6 6 6 8 8 6 8 6 6 7 11 7 8 7 6 5 7 5 8 6 5 7 6 7 10 6 15 7 7 9 6 8 7 5 12 0 9 6 5 4 6 7 5 6 7 11 7 10 12 6 5 7 5 10 8 17 16 5 5 6 11 8 12 9 6 7 7 8 7 6 10 10 13 8 6 6 4 14 9 6 6 14 10 10 11 11 6 6 7 6 9 7 6 6 6 12 9 5 6 10 5 4 6 5 -9999 -9999 -9999 -9999
-9999 -9999 -9999 -9999 13 7 22 20 16 22 16 23 11 21 9 19 26 26 15 15 16 19 7 4 13 7 7 7 4 6 12 7 5 7 5 6 27 6 25 21 21 24 22 22 22 21 23 28 25 20 18 15 24 25 24 27 24 27 22 21 21 23 29 26 26 26 27 27 30 27 27 26 26 27 26 22 24 16 22 9 3 21 22 9 6 6 8 7 6 5 9 6 17 17 11 6 8 7 6 6 10 10 3 6 10 20 6 6 6 11 6 7 7 6 6 7 18 7 7 6 5 5 7 6 9 10 4 5 11 3 5 6 5 6 6 6 6 11 10 7 9 8 18 5 6 5 9 10 7 5 7 17 7 4 4 6 8 6 6 7 10 8 10 4 7 14 11 7 10 17 8 6 7 6 6 6 10 5 5 5 6 6 6 6 12 6 5 7 5 6 14 8 5 6 6 -9999 -9999 -9999 -9999
-9999 -9999 -9999 -9999 15 15 17 21 11 7 18 13 19 18 18 11 20 12 11 11 22 17 8 6 11 6 8 5 9 15 6 18 15 17 12 11 11 17 23 23 22 22 27 22 20 22 22 17 0 21 22 23 23 20 21 23 22 21 20 20 23 23 28 26 27 27 26 27 24 27 30 25 31 28 27 19 7 30 26 9 6 23 10 4 4 9 9 5 6 6 6 7 24 25 13 5 7 6 5 7 6 9 6 5 10 19 6 10 10 5 6 7 8 6 7 6 25 7 6 6 10 7 8 6 7 5 5 6 5 6 7 8 9 7 6 5 6 5 6 9 11 6 11 19 9 7 7 7 6 0 0 19 6 10 6 5 6 6 7 5 10 4 7 6 8 7 8 18 9 19 12 6 12 6 7 7 7 5 5 6 7 6 0 6 6 7 5 5 7 5 6 7 6 5 6 -9999 -9999 -9999 -9999
-9999 -9999 -9999 -9999 10 24 21 19 10 17 10 17 21 20 18 5 7 25 13 13 17 14 7 6 6 6 17 4 7 7 17 9 20 27 6 13 7 18 23 25 22 22 22 22 23 23 22 18 10 22 21 25 27 20 23 22 22 22 23 21 16 22 23 26 23 23 23 27 21 16 27 26 26 27 28 17 16 25 30 27 23 26 21 5 6 6 8 5 6 7 7 18 12 6 7 6 11 8 5 6 6 7 7 7 13 11 5 6 7 7 7 6 6 6 8 7 6 5 6 5 5 6 8 5 10 6 11 8 6 5 6 6 6 6 7 5 3 8 7 6 5 4 7 6 10 10 4 5 3 6 6 7 5 7 4 6 8 6 10 5 7 6 5 7 9 5 8 6 7 5 9 6 6 5 6 5 5 7 6 7 7 7 7 19 4 6 5 6 7 5 6 10 7 5 5 -9999 -9999 -9999 -9999
-9999 -9999 -9999 -9999 6 11 8 16 10 7 24 11 5 9 17 7 6 10 12 12 10 14 21 19 12 7 8 5 3 10 22 14 23 18 4 11 4 14 23 23 19 22 23 22 16 10 23 23 23 21 21 21 28 26 21 23 23 22 24 25 12 21 23 23 23 23 23 21 19 22 23 22 25 21 26 26 26 24 25 24 19 23 23 20 6 11 4 7 6 6 6 12 6 6 7 6 8 13 5 4 4 6 6 6 13 7 5 6 6 6 8 7 7 7 20 16 6 6 5 6 10 17 6 6 7 7 10 6 8 5 7 6 5 8 6 5 5 7 6 6 9 6 6 7 7 3 0 3 3 7 4 7 9 6 6 9 8 6 9 7 6 10 6 6 6 6 6 6 5 7 6 7 6 6 7 5 5 7 7 5 6 7 6 5 13 7 0 6 8 6 6 5 6 6 7 -9999 -9999 -9999 -9999
-9999 -9999 -9999 -9999 22 21 19 12 6 6 15 8 6 15 6 12 18 10 8 8 15 11 10 22 17 5 9 6 6 20 9 22 15 9 6 8 4 14 22 22 19 22 22 15 14 22 21 24 20 19 23 22 23 24 22 22 23 23 24 24 24 20 25 23 23 24 23 21 23 23 23 26 23 23 23 23 25 23 24 26 26 23 21 14 8 8 4 5 8 7 6 6 8 8 6 6 6 6 6 6 7 6 6 7 6 17 7 15 14 6 8 10 13 12 6 15 5 10 6 6 10 16 5 6 8 10 10 6 6 7 6 6 5 5 5 6 6 6 7 14 6 7 9 12 6 6 11 7 12 13 4 6 9 6 5 6 6 6 5 5 6 6 5 6 5 7 7 6 6 6 5 7 7 7 6 9 13 10 7 5 6 7 6 8 3 3 5 5 7 5 4 6 6 6 6 -9999 -9999 -9999 -9999
-9999 -9999 -9999 -9999 23 18 22 21 17 8 17 6 11 8 11 7 7 11 5 5 12 22 8 7 16 19 7 6 14 9 9 15 13 7 4 14 10 7 18 23 21 23 15 15 17 21 23 29 18 15 25 22 23 25 24 23 26 23 23 22 22 25 23 22 23 23 23 17 21 23 23 22 23 25 22 22 25 19 23 19 24 18 21 9 12 14 5 6 6 6 16 7 5 7 6 12 8 7 7 15 7 7 6 13 6 10 8 7 21 6 12 6 5 6 8 7 5 4 6 6 8 6 5 8 9 14 7 9 7 9 6 6 6 5 7 5 5 5 6 6 8 10 15 7 6 8 7 10 13 15 6 9 10 11 14 14 7 8 10 8 9 6 6 8 6 5 6 7 6 6 6 5 6 7 5 9 9 8 5 8 5 11 6 5 5 4 7 6 6 7 6 6 6 6 12 -9999 -9999 -9999 -9999
-9999 -9999 -9999 -9999 18 15 16 13 19 18 7 5 12 7 19 19 22 7 4 4 16 13 9 13 20 8 8 11 7 6 10 17 6 8 5 22 9 11 6 26 23 0 11 15 21 23 22 20 22 21 20 21 21 25 12 13 26 22 23 23 23 25 23 22 22 28 25 23 16 23 23 24 23 26 23 22 22 23 27 27 20 22 23 23 27 17 20 6 5 6 7 6 6 15 5 6 6 6 8 6 6 5 5 14 10 7 8 6 6 7 7 7 9 10 13 5 7 10 7 11 8 16 8 7 6 5 6 8 8 11 7 7 6 5 7 6 8 7 7 7 5 3 13 7 10 6 10 6 6 6 11 9 5 6 4 10 7 14 19 8 9 11 6 6 6 5 6 5 6 6 4 7 6 6 6 8 6 5 7 10 6 5 5 6 6 6 6 10 8 6 5 8 5 5 5 -9999 -9999 -9999 -9999
-9999 -9999 -9999 -9999 12 9 6 9 11 18 16 7 10 11 22 7 10 11 5 5 8 10 17 13 13 15 15 11 17 19 21 23 16 5 19 23 18 7 15 24 10 6 6 6 18 20 25 26 22 25 23 21 23 23 8 7 22 24 25 21 23 23 23 22 23 22 22 23 21 18 23 24 24 20 24 23 28 26 28 25 22 22 23 23 22 22 8 7 6 6 8 6 9 4 0 7 6 6 6 9 6 5 6 8 7 7 7 7 6 11 6 7 7 9 7 5 5 4 6 17 9 6 13 5 5 7 7 7 8 7 6 6 6 7 12 11 10 9 8 0 8 5 6 6 6 5 13 6 7 6 7 14 14 6 6 5 5 4 7 7 11 6 16 13 12 7 5 6 7 6 5 6 5 7 8 8 5 5 6 9 9 5 6 7 5 6 6 5 5 6 7 6 11 6 7 -9999 -9999 -9999 -9999
-9999 -9999 -9999 -9999 8 11 5 12 5 15 12 17 17 8 20 9 5 6 3 3 10 17 8 12 10 11 6 11 17 23 21 22 17 14 21 25 20 6 6 10 23 22 25 14 11 22 21 29 24 22 27 18 23 26 8 4 26 29 25 25 23 24 25 27 23 25 25 23 22 25 22 22 25 18 20 25 28 21 21 21 22 23 21 25 23 19 8 15 6 4 5 5 9 5 0 8 7 7 6 6 11 6 7 6 7 6 7 7 6 7 6 6 7 7 7 6 6 7 8 18 12 10 10 7 4 8 6 6 7 5 7 6 8 6 7 11 12 11 8 7 7 7 6 6 9 10 16 6 7 7 11 8 6 16 9 7 6 6 6 12 19 17 27 12 8 14 10 6 6 10 6 6 9 6 7 7 7 6 6 7 6 7 6 6 6 14 9 5 5 6 10 8 6 5 6 -9999 -9999 -9999 -9999
-9999 -9999 -9999 -9999 10 21 13 9 7 13 23 18 13 4 19 11 5 6 5 5 18 15 9 7 11 11 23 13 12 16 18 16 8 21 21 25 22 19 7 6 22 21 22 17 21 20 20 22 22 20 11 22 20 14 20 23 10 29 19 24 23 23 25 24 28 23 27 23 25 22 23 22 20 23 21 23 23 13 23 23 24 23 23 22 22 13 8 20 15 6 7 4 17 9 8 8 7 8 6 6 11 6 6 5 6 7 6 5 6 8 13 16 15 18 9 7 6 7 7 8 8 11 8 7 7 7 7 17 6 10 7 5 7 7 10 6 8 13 8 6 5 5 7 5 6 7 13 15 7 6 8 9 7 6 6 7 6 6 7 6 5 14 8 12 19 7 16 8 7 10 6 6 10 5 4 5 6 6 6 7 8 5 14 7 8 6 9 5 5 5 14 14 7 5 6 -9999 -9999 -9999 -9999
-9999 -9999 -9999 -9999 15 13 18 11 11 10 13 14 21 8 6 7 0 0 11 11 8 9 7 7 5 17 8 6 6 5 3 20 7 17 22 13 20 10 13 16 22 23 17 23 23 22 22 21 23 22 10 14 7 7 10 7 12 18 23 14 23 25 26 23 26 25 26 26 29 31 29 23 27 25 27 20 22 25 20 12 11 11 16 17 21 20 20 21 18 4 5 5 10 16 11 5 13 22 8 6 5 10 6 5 7 7 9 8 6 7 8 7 20 16 10 6 7 5 10 14 12 8 9 14 8 7 6 10 10 10 7 7 4 8 7 6 11 5 8 6 5 12 10 5 7 6 6 7 6 5 6 10 7 6 6 7 10 6 6 12 5 5 8 4 4 4 13 8 7 9 10 7 18 6 7 6 8 7 6 10 6 9 6 10 11 5 7 14 4 9 5 11 6 6 6 -9999 -9999 -9999 -9999
-9999 -9999 -9999 -9999 4 11 7 12 9 5 12 14 17 13 7 17 6 6 17 17 10 4 7 7 7 17 6 5 5 7 13 12 6 11 10 6 13 11 15 23 23 23 14 16 22 22 23 23 10 21 26 11 5 7 3 7 9 24 25 25 23 11 7 25 27 21 27 22 26 28 26 15 23 24 24 22 29 25 23 21 20 17 16 22 25 17 18 25 22 5 7 5 17 20 15 5 25 25 10 3 6 5 5 7 6 5 7 6 7 9 7 16 21 22 12 6 10 6 6 6 12 14 10 7 5 14 7 14 17 6 8 10 6 6 13 11 6 10 8 8 5 5 9 14 14 4 5 7 8 9 6 7 14 7 5 6 7 6 3 7 7 6 7 6 10 8 8 7 6 9 12 10 11 7 6 10 6 12 6 9 6 7 6 8 15 6 7 8 5 10 6 4 7 6 6 -9999 -9999 -9999 -9999
-9999 -9999 -9999 -9999 6 6 13 21 21 19 14 9 20 24 18 13 13 23 6 6 5 5 5 10 7 23 16 5 14 8 23 8 9 19 7 15 15 13 22 16 18 20 17 20 16 17 25 21 13 20 23 18 6 6 5 12 5 16 15 18 25 6 7 23 23 23 26 25 27 28 27 28 28 23 22 24 25 22 25 22 22 24 23 23 23 25 10 10 17 14 15 11 16 15 11 6 22 19 9 0 4 6 6 6 5 7 8 7 5 7 15 7 6 7 8 7 9 11 11 8 10 15 17 9 12 6 6 10 8 7 6 5 9 6 6 8 5 6 7 15 9 10 6 16 15 6 8 9 10 7 7 8 9 13 8 7 5 6 7 5 9 10 6 6 6 6 6 7 6 6 6 7 10 19 16 18 6 14 6 5 7 8 6 5 7 9 9 9 5 6 6 7 14 7 6 -9999 -9999 -9999 -9999
-9999 -9999 -9999 -9999 5 8 17 10 25 17 8 15 14 18 16 11 11 7 8 8 5 6 5 5 9 17 23 11 6 13 16 14 11 8 17 11 22 16 22 19 22 11 22 22 7 19 21 22 19 24 22 22 9 10 6 7 11 10 6 9 8 20 21 23 8 9 25 21 23 25 21 22 27 24 22 23 22 23 23 25 22 19 23 22 23 21 25 24 13 8 19 19 24 7 9 26 23 18 28 9 10 6 7 4 5 18 9 6 5 6 6 8 5 5 6 11 11 8 12 14 12 7 14 5 6 7 10 9 8 6 7 7 6 10 6 10 10 9 8 13 14 6 8 15 11 10 5 7 6 10 18 6 7 9 6 5 6 8 6 7 7 6 6 8 6 6 6 7 5 0 7 5 9 5 8 12 16 9 9 5 4 6 7 6 8 7 8 15 7 8 6 5 7 9 6 -9999 -9999 -9999 -9999
-9999 -9999 -9999 -9999 11 3 19 7 14 7 7 8 18 7 7 7 6 5 6 6 14 13 7 6 7 9 9 11 6 8 6 7 4 5 17 5 20 20 20 17 19 23 23 21 9 22 21 22 21 13 22 22 24 7 16 8 24 26 8 6 8 13 19 7 3 7 22 8 27 22 22 22 20 17 15 18 24 22 22 22 22 22 26 21 24 27 18 28 20 19 18 25 26 20 16 26 26 27 29 9 7 6 6 21 7 20 7 8 8 7 6 6 5 9 7 9 6 14 7 10 6 6 9 9 5 6 8 7 8 13 7 9 6 6 6 8 10 14 9 8 14 9 7 7 15 8 5 6 5 14 10 4 6 9 12 6 8 6 6 5 7 9 7 6 7 7 5 7 5 7 18 6 6 9 7 8 11 22 14 8 6 6 7 6 7 7 6 9 6 8 5 5 8 6 6 -9999 -9999 -9999 -9999
-9999 -9999 -9999 -9999 15 10 19 8 16 5 14 8 7 5 6 5 6 7 7 7 22 23 18 12 8 7 7 9 6 7 7 13 17 4 5 16 21 10 7 19 18 8 20 22 19 21 21 19 13 5 18 23 21 22 23 22 20 8 5 10 6 16 16 11 5 6 13 20 22 23 21 21 24 24 22 23 23 22 24 23 22 22 26 25 24 23 22 25 9 21 12 22 16 7 23 17 25 23 27 27 11 5 7 6 7 21 17 15 7 12 8 6 6 11 6 7 7 7 7 8 6 6 20 16 8 5 8 16 16 12 15 6 6 7 5 8 12 7 7 8 5 5 5 6 7 7 6 7 6 5 13 7 8 6 9 5 7 10 6 5 10 7 6 5 4 4 6 5 9 8 6 6 5 7 6 5 6 0 17 7 6 6 9 7 6 11 6 9 5 13 6 6 6 6 6 -9999 -9999 -9999 -9999
-9999 -9999 -9999 -9999 25 21 20 19 19 17 23 18 19 7 5 7 10 10 6 6 22 23 26 21 19 9 11 9 7 9 10 16 10 5 6 7 20 21 8 11 23 9 18 22 19 20 23 14 22 22 18 23 9 19 17 9 11 6 5 20 7 12 10 9 5 7 7 23 17 22 20 22 25 23 23 22 23 16 22 21 22 23 23 23 25 20 25 23 19 24 10 19 9 6 7 20 23 25 8 8 10 11 6 6 6 13 31 6 9 9 11 7 6 8 7 15 21 6 11 6 17 6 16 9 7 7 6 7 10 7 16 17 7 15 15 8 6 6 7 5 12 5 6 6 7 9 7 7 10 6 11 8 6 17 14 14 5 5 6 13 8 7 6 7 6 5 6 7 7 14 10 9 6 4 6 3 5 4 10 7 6 6 6 6 12 6 6 11 6 5 4 10 5 6 5 -9999 -9999 -9999 -9999
-9999 -9999 -9999 -9999 7 5 12 13 9 10 21 11 18 23 13 9 22 13 7 7 11 20 11 12 23 6 7 7 3 8 7 5 8 8 21 21 22 23 22 20 21 8 25 20 25 19 22 22 23 22 21 25 23 23 9 17 22 12 12 12 7 27 25 7 20 3 9 22 20 22 20 21 23 23 22 5 18 25 14 22 22 26 23 25 24 25 25 23 11 8 7 20 14 6 16 23 24 23 14 6 5 12 19 12 9 14 13 6 6 9 20 10 17 19 12 6 6 8 6 7 21 6 5 16 18 5 9 7 7 5 10 7 5 7 20 17 8 7 6 18 8 7 10 5 8 6 6 7 6 12 14 14 17 6 6 14 7 9 5 13 6 7 11 8 6 10 13 6 6 7 3 6 10 10 7 5 4 7 3 11 6 10 6 6 15 16 9 4 6 3 8 8 6 6 7 -9999 -9999 -9999 -9999
-9999 -9999 -9999 -9999 23 18 13 5 7 4 7 7 9 6 7 12 5 4 5 5 8 20 19 21 21 7 6 7 15 9 11 7 8 6 10 21 25 22 17 21 17 14 18 16 22 23 19 22 21 19 17 11 20 21 22 22 20 7 8 7 8 17 5 6 7 5 6 5 6 15 6 23 25 25 27 7 24 24 24 23 20 21 24 23 25 25 27 25 32 13 10 15 5 10 23 23 25 22 23 13 7 7 8 11 6 11 8 11 8 10 18 14 19 15 17 10 12 8 7 9 6 17 7 6 6 10 6 8 11 10 4 7 8 20 7 12 6 6 7 13 6 4 9 9 7 7 10 6 7 6 17 6 15 5 5 6 9 11 7 5 10 6 10 6 6 6 6 10 7 6 6 7 7 6 12 3 3 6 8 9 6 5 6 6 8 14 15 6 5 4 8 7 4 4 6 -9999 -9999 -9999 -9999
-9999 -9999 -9999 -9999 12 15 4 14 21 6 13 8 7 12 6 6 5 4 6 6 5 7 9 9 6 4 8 16 22 19 22 19 8 10 22 20 14 6 21 19 11 18 18 14 22 21 22 16 22 13 12 7 17 22 24 11 18 16 16 6 4 8 7 6 12 15 4 5 6 7 6 23 25 26 24 20 23 24 23 23 25 19 20 22 23 24 23 27 24 23 20 21 23 23 22 25 23 11 6 12 5 5 6 7 6 7 21 8 5 9 12 12 9 17 16 18 18 14 6 7 16 7 7 16 10 5 7 8 12 11 5 5 7 6 7 9 17 5 7 6 4 5 5 6 6 9 8 7 10 15 6 10 6 8 8 7 7 6 7 5 3 9 6 6 5 5 6 9 14 6 6 13 6 6 3 3 4 3 5 3 3 6 6 6 7 13 6 9 11 6 10 7 5 5 6 -9999 -9999 -9999 -9999
-9999 -9999 -9999 -9999 9 9 8 16 23 17 17 18 15 18 12 6 8 4 7 7 7 8 4 6 10 6 9 25 20 10 11 16 19 22 22 7 6 4 21 18 8 16 18 13 22 18 22 10 11 11 6 11 21 18 25 9 19 8 6 20 3 9 8 9 7 23 12 27 26 20 7 22 26 16 27 26 27 8 10 28 21 25 24 21 26 26 24 23 25 16 22 23 25 25 25 26 27 25 12 7 5 7 10 8 6 20 22 12 9 6 15 9 6 13 8 9 11 17 5 10 16 7 7 10 12 6 8 8 10 15 6 5 6 6 7 6 10 6 6 5 6 5 10 6 6 4 4 9 11 7 5 16 5 6 4 6 8 8 7 15 5 9 9 6 6 12 5 7 6 7 5 13 9 6 3 5 7 5 7 7 4 0 5 0 5 9 7 7 10 13 5 7 8 6 6 -9999 -9999 -9999 -9999
-9999 -9999 -9999 -9999 6 8 16 18 12 7 14 20 16 12 7 13 5 7 5 5 5 7 11 19 11 6 9 23 8 5 8 16 19 24 18 20 11 22 21 19 23 19 16 20 18 18 15 13 7 8 7 16 17 19 16 16 21 6 21 9 7 22 5 7 7 20 28 26 27 6 22 23 23 27 28 22 31 28 29 27 28 22 30 26 27 21 13 23 24 16 22 23 27 28 25 23 26 25 21 12 5 6 8 9 9 10 8 7 8 6 18 14 8 16 5 7 8 16 4 7 14 9 7 8 8 7 7 14 10 13 7 6 6 10 10 5 6 7 5 9 7 11 5 6 5 7 5 11 7 6 6 17 5 4 4 7 0 0 10 8 7 6 6 5 5 6 6 7 3 7 6 12 8 6 3 9 8 5 6 3 0 9 6 5 0 7 12 11 11 5 7 4 6 7 7 -9999 -9999 -9999 -9999
-9999 -9999 -9999 -9999 19 6 5 12 6 6 6 6 8 8 4 7 13 16 21 21 11 5 7 9 7 11 11 13 6 7 23 23 17 22 13 16 11 22 7 17 17 11 16 21 21 22 18 14 11 13 8 6 9 20 16 11 6 20 22 10 7 13 21 17 6 8 23 26 27 28 28 22 21 23 27 23 27 29 27 23 27 26 27 28 22 19 11 11 18 15 23 22 14 28 25 27 22 24 22 25 10 6 7 9 7 21 19 4 6 9 11 19 13 10 7 6 10 19 16 10 8 8 9 5 10 4 13 5 3 6 6 8 5 6 7 7 7 8 5 5 5 10 8 5 5 5 8 8 9 10 7 9 7 5 5 6 5 4 6 7 6 4 5 7 6 5 5 5 6 5 6 7 6 7 5 6 4 6 6 3 6 6 5 6 7 9 19 16 9 8 6 3 4 6 6 -9999 -9999 -9999 -9999
-9999 -9999 -9999 -9999 20 15 18 21 16 12 19 14 16 20 5 6 8 7 7 7 21 16 10 13 4 11 16 21 12 21 21 19 5 13 11 9 8 6 7 16 12 9 5 8 22 19 22 7 7 9 10 11 17 14 17 6 15 17 18 11 14 22 26 11 9 7 11 28 24 25 25 25 25 23 22 22 28 31 28 26 30 24 22 26 19 23 9 11 21 14 7 10 20 10 23 13 7 5 10 17 8 5 6 13 6 16 6 7 7 16 10 5 14 6 13 5 24 19 7 14 6 8 12 4 11 13 6 6 5 7 11 8 6 6 6 13 5 6 9 6 7 15 5 5 6 4 5 14 10 19 16 5 6 9 6 7 5 6 5 7 8 7 6 8 9 5 5 6 7 6 6 14 6 7 6 3 6 5 6 6 6 6 5 7 0 3 16 13 11 9 9 8 6 5 8 -9999 -9999 -9999 -9999
-9999 -9999 -9999 -9999 -9999 10 22 19 16 17 23 23 17 14 19 11 6 5 8 8 7 10 6 7 7 15 20 19 21 18 18 20 16 6 11 9 11 22 8 7 8 11 18 20 22 20 11 10 11 11 11 0 13 13 12 7 19 22 12 16 18 16 4 8 24 26 23 27 25 26 27 25 25 25 15 23 25 24 24 22 23 24 21 22 22 25 13 25 16 9 6 8 11 9 22 7 7 9 7 8 10 13 7 6 4 8 7 6 8 6 22 25 6 5 4 17 17 16 22 11 8 9 12 7 14 12 8 4 11 7 6 6 10 7 5 13 8 4 9 6 7 15 6 6 6 7 17 5 5 14 8 14 7 4 9 6 8 7 4 5 10 7 6 8 14 5 6 7 6 7 7 8 6 14 5 0 7 6 6 6 7 5 7 7 3 3 4 10 9 9 7 7 6 5 8 -9999 -9999 -9999 -9999
-9999 -9999 -9999 -9999 -9999 7 12 23 24 17 11 18 19 7 19 24 14 14 5 5 6 7 10 10 5 10 17 13 19 21 19 17 12 16 25 15 22 14 19 11 10 25 20 23 21 11 7 10 12 11 4 0 3 5 12 22 22 22 21 23 23 19 18 7 22 22 21 23 27 14 26 20 27 25 20 21 27 24 25 23 24 23 22 22 19 18 19 16 9 6 7 6 8 7 12 8 12 14 14 15 16 9 7 6 3 6 6 11 6 6 8 19 6 6 7 8 3 4 7 7 10 9 10 10 7 10 9 10 6 6 5 6 12 10 6 6 7 7 10 5 10 5 6 5 7 7 9 16 5 14 6 16 6 7 6 3 6 5 6 0 7 6 6 5 7 6 5 8 5 6 6 10 6 8 7 5 6 5 9 6 5 6 5 4 6 6 5 5 7 8 15 9 7 3 4 5 -9999 -9999 -9999
-9999 -9999 -9999 -9999 -9999 10 14 16 8 10 10 23 7 6 17 10 9 14 5 5 6 16 6 6 7 14 18 15 17 12 18 23 23 15 7 9 11 10 8 6 10 20 17 24 19 25 20 21 9 7 10 6 5 12 13 9 22 25 20 22 17 23 23 22 23 22 27 25 24 23 27 27 28 26 25 25 20 25 22 30 24 24 12 24 27 24 22 18 11 15 9 6 6 8 13 8 16 11 6 7 9 14 10 8 6 7 8 15 7 6 6 5 6 3 4 7 6 7 7 6 4 7 9 12 7 5 12 10 5 4 7 9 7 6 9 11 6 6 6 6 7 8 6 6 10 6 9 14 9 9 6 5 6 6 8 5 8 6 6 4 5 11 9 7 10 6 6 6 5 12 6 9 16 6 10 6 6 5 6 6 6 5 5 6 5 5 4 6 4 4 10 8 8 8 3 5 -9999 -9999 -9999
-9999 -9999 -9999 -9999 -9999 5 7 6 9 14 13 16 8 6 17 7 11 7 10 10 14 6 6 7 11 20 10 8 16 13 21 25 22 22 8 7 12 9 9 8 16 21 9 21 18 26 18 18 13 9 5 4 3 13 17 10 23 20 15 19 17 20 21 22 24 18 25 22 25 25 23 27 23 26 25 8 25 26 26 26 27 25 21 31 27 27 25 23 17 22 15 6 9 6 6 6 7 11 10 5 8 3 9 6 6 0 7 12 9 7 16 5 8 5 14 6 7 7 3 4 6 8 8 14 10 5 7 5 6 6 10 6 9 6 10 5 5 6 8 6 6 9 6 5 7 7 6 7 6 10 6 6 5 4 5 6 9 5 7 5 7 7 4 6 12 11 5 6 6 5 8 8 7 6 6 4 5 8 6 6 11 6 5 5 5 6 4 5 6 5 5 6 7 5 5 6 -9999 -9999 -9999
-9999 -9999 -9999 -9999 -9999 5 10 13 7 6 7 20 8 3 13 7 8 5 15 15 19 6 16 9 21 24 21 19 16 17 18 21 22 22 6 4 10 7 5 7 7 12 11 20 22 19 6 16 13 7 6 6 0 4 9 22 19 12 21 22 20 21 26 20 24 21 25 23 23 16 22 21 21 20 27 10 27 24 25 29 27 14 30 25 27 25 31 25 24 23 11 16 19 15 14 11 13 19 12 7 7 8 0 5 6 8 7 4 7 14 0 5 6 12 6 13 5 3 5 4 6 6 7 7 11 10 7 10 5 4 12 7 7 6 12 7 4 7 6 6 8 8 6 7 5 6 11 8 5 7 5 5 6 5 5 5 3 6 7 6 7 7 4 6 5 14 14 5 5 6 6 7 9 5 10 9 5 6 5 5 7 5 3 6 6 6 4 6 5 5 6 7 6 6 5 3 -9999 -9999 -9999
-9999 -9999 -9999 -9999 -9999 7 11 18 19 14 8 11 17 18 11 3 9 13 11 11 20 10 18 10 11 8 10 5 20 16 19 22 14 11 5 18 16 13 10 16 7 6 9 12 22 18 8 13 20 16 7 17 5 10 5 20 21 22 26 21 24 17 12 13 7 21 25 23 20 16 25 25 22 23 20 25 27 16 23 21 26 9 24 22 23 23 27 22 20 22 19 23 19 12 14 18 19 19 11 7 7 6 6 4 4 7 7 5 9 8 6 5 5 9 10 6 5 6 5 0 7 16 7 17 7 7 5 7 6 6 9 7 6 5 7 8 18 6 7 7 8 6 5 6 6 6 4 7 9 7 5 5 14 5 6 5 5 6 7 6 7 5 4 7 6 7 9 7 6 8 5 6 6 7 8 16 5 9 7 5 6 5 6 4 4 5 5 5 5 6 6 3 5 6 4 3 -9999 -9999 -9999
-9999 -9999 -9999 -9999 -9999 7 8 22 16 13 6 13 13 18 10 7 10 7 6 6 11 14 7 16 10 23 16 10 24 20 24 20 23 15 3 9 10 9 13 19 20 10 13 20 21 14 16 18 20 22 13 18 12 19 21 13 18 7 23 22 20 20 19 26 11 6 15 21 25 21 23 28 26 27 24 21 7 15 19 15 22 25 24 24 21 24 26 25 23 19 13 21 16 16 16 19 16 14 19 8 6 7 11 5 7 4 7 7 6 17 8 10 5 10 17 6 9 8 6 4 4 10 9 22 6 6 8 10 6 7 7 6 6 7 3 6 7 6 6 6 7 5 6 5 7 6 5 4 8 8 6 6 6 7 5 7 6 6 9 6 8 6 4 8 7 4 6 7 6 14 4 5 8 14 5 6 7 7 11 4 5 4 4 6 7 5 6 6 6 5 6 5 5 5 8 4 -9999 -9999 -9999
-9999 -9999 -9999 -9999 -9999 11 5 11 20 10 12 12 6 6 6 10 8 21 8 8 8 5 11 18 8 9 11 14 22 22 21 19 11 6 13 22 7 4 13 13 24 16 16 15 19 19 19 10 17 19 20 17 15 20 19 20 19 20 22 19 22 23 23 22 22 22 13 22 21 27 27 27 23 23 27 14 7 22 20 18 23 17 21 24 21 26 22 23 23 23 19 15 20 16 16 13 19 11 10 16 8 5 11 9 9 6 6 6 6 6 7 7 5 10 7 7 11 7 10 6 7 7 7 17 5 8 6 8 6 10 8 8 5 16 16 5 11 11 6 5 6 6 5 5 9 5 5 6 5 6 7 7 10 5 5 6 5 5 4 11 7 6 5 7 9 6 5 7 6 3 7 7 6 7 7 6 6 5 10 5 5 5 5 6 5 6 7 7 6 4 7 9 6 7 7 5 -9999 -9999 -9999
-9999 -9999 -9999 -9999 -9999 7 10 9 7 7 9 13 14 7 10 8 10 23 11 11 7 10 12 16 18 9 5 6 8 21 23 20 12 12 4 4 12 8 22 16 14 16 21 17 19 21 23 21 20 23 8 6 7 8 16 12 7 6 27 19 20 19 19 21 14 16 22 21 28 27 23 24 23 24 23 13 23 19 22 28 21 22 23 23 19 25 25 25 24 23 20 7 15 10 7 6 14 6 9 9 9 6 6 14 7 6 7 8 7 3 5 7 3 8 10 7 5 7 4 10 6 7 7 7 7 6 8 6 6 7 6 6 6 6 14 6 6 7 7 6 8 9 6 4 6 5 7 7 3 7 7 7 7 6 5 9 7 7 7 7 6 6 6 6 6 6 8 8 6 4 4 5 9 6 5 6 5 4 5 12 3 5 6 6 6 3 6 11 12 9 6 5 5 6 3 9 -9999 -9999 -9999
-9999 -9999 -9999 -9999 -9999 5 15 10 16 13 8 10 11 7 12 13 12 11 4 4 5 0 17 21 19 21 11 8 6 21 23 22 23 17 17 12 6 19 25 19 23 23 9 6 13 25 18 23 18 7 9 4 6 8 16 7 6 11 21 25 25 23 22 23 20 25 26 23 23 24 26 19 20 12 8 17 23 23 23 27 23 26 26 22 25 22 24 23 23 13 22 24 4 8 7 8 6 5 7 7 6 6 16 11 7 7 8 6 6 5 4 4 9 14 6 7 6 8 6 6 6 7 9 6 5 6 13 5 6 6 6 9 16 7 10 6 6 9 7 6 5 5 5 6 6 9 5 7 4 7 5 6 5 6 6 5 5 3 7 6 8 6 7 6 7 8 6 7 5 5 7 5 8 6 11 8 5 8 3 9 4 5 6 6 6 3 3 7 15 3 6 14 8 6 3 6 -9999 -9999 -9999
-9999 -9999 -9999 -9999 -9999 11 6 17 14 10 6 6 8 6 11 15 8 6 6 6 7 13 19 22 17 16 10 13 18 18 13 24 18 9 15 19 9 17 22 21 22 21 17 9 10 5 10 22 22 12 6 7 4 6 6 7 19 17 26 19 22 21 32 22 29 26 23 25 28 22 26 13 12 11 21 25 22 25 20 9 11 11 17 18 16 23 25 25 8 5 25 12 8 13 6 6 7 8 9 11 7 7 13 18 7 12 6 22 5 6 9 6 7 6 17 11 5 6 6 7 7 7 11 6 5 7 16 9 6 7 6 17 10 10 15 6 10 8 5 7 5 10 6 6 6 7 7 11 5 7 6 5 7 5 4 6 5 0 6 8 11 5 7 8 5 6 6 10 7 8 7 7 6 5 7 8 6 7 3 7 4 6 3 4 0 6 5 4 0 4 6 8 3 6 5 6 -9999 -9999 -9999
-9999 -9999 -9999 -9999 -9999 9 15 17 20 7 13 18 16 13 19 16 16 10 9 9 8 10 13 23 8 15 10 5 15 23 5 17 5 21 19 22 22 23 25 22 20 18 14 9 17 16 22 22 8 7 5 4 5 0 3 6 11 15 7 3 19 24 31 23 27 23 22 22 19 23 26 10 18 22 22 25 23 22 7 8 7 18 21 23 18 22 25 24 12 11 19 16 9 10 12 6 5 7 9 7 14 9 13 10 17 12 6 7 7 8 6 7 16 7 7 6 7 7 7 7 6 7 11 6 7 7 14 6 7 15 7 7 6 6 9 8 11 9 6 7 6 7 10 6 8 13 7 8 6 5 7 7 10 0 6 6 5 6 6 7 6 6 6 8 3 15 4 6 6 6 10 7 6 6 6 6 5 7 6 5 6 5 6 6 0 5 5 5 6 5 6 7 5 5 4 7 -9999 -9999 -9999
-9999 -9999 -9999 -9999 -9999 11 4 11 16 8 13 10 8 6 5 8 6 10 12 12 7 17 17 18 25 11 8 11 17 20 7 16 17 16 23 8 23 22 23 6 7 20 5 12 23 22 21 24 17 9 6 4 3 6 3 16 10 7 8 6 22 25 23 22 23 25 22 23 20 20 25 22 26 25 21 23 26 22 6 7 21 21 23 22 18 20 19 16 11 16 23 19 6 8 8 7 7 14 16 7 10 16 7 5 21 17 9 5 8 15 7 5 8 5 6 11 8 7 6 23 6 8 11 10 7 12 10 7 10 6 11 6 9 6 4 3 3 5 7 7 9 5 6 12 6 7 7 8 9 5 7 4 5 3 6 9 13 6 6 7 14 7 6 6 4 8 6 6 7 4 10 7 6 6 5 6 4 6 5 5 5 6 4 5 6 6 5 5 6 9 6 5 6 6 5 6 -9999 -9999 -9999
-9999 -9999 -9999 -9999 -9999 7 7 16 20 9 13 5 6 10 7 5 7 15 3 3 8 11 18 20 19 17 10 11 17 25 8 8 23 19 17 22 25 19 22 17 23 17 12 15 21 11 17 5 7 6 4 6 8 6 0 9 6 8 6 8 16 22 21 24 23 23 26 23 5 18 22 20 25 26 22 23 23 27 23 23 23 22 21 24 25 25 21 19 20 19 21 23 22 16 17 7 12 10 7 10 11 12 5 10 15 6 6 5 8 9 6 4 15 8 7 7 6 5 9 10 20 7 6 5 6 7 11 6 9 7 7 5 10 4 4 6 6 6 6 6 10 6 6 5 6 9 9 4 6 8 7 10 10 7 6 6 9 7 4 5 7 7 6 5 7 7 6 5 8 6 9 10 9 5 8 5 7 6 7 6 6 6 3 4 6 5 3 6 7 6 5 5 6 6 6 7 -9999 -9999 -9999
-9999 -9999 -9999 -9999 -9999 5 6 6 6 7 17 11 6 7 5 7 11 11 15 15 9 10 7 20 23 17 18 21 22 22 17 22 11 13 21 21 17 16 10 22 23 21 22 11 10 20 8 20 13 6 9 21 20 16 7 8 3 9 11 26 10 16 26 20 22 28 22 30 22 23 29 24 25 28 23 25 27 25 29 25 22 22 25 24 25 25 16 21 20 22 23 22 24 23 16 8 6 7 13 9 21 14 10 11 19 19 8 5 8 8 6 6 6 8 7 6 7 3 8 6 5 8 17 6 6 9 7 7 6 6 15 6 6 16 6 6 6 6 6 7 6 8 8 6 3 11 6 7 7 3 6 6 16 4 5 15 4 14 6 5 6 4 5 4 10 7 7 18 7 9 7 8 6 5 6 4 7 6 5 6 7 6 6 7 5 4 5 6 5 9 5 6 0 0 7 12 -9999 -9999 -9999
-9999 -9999 -9999 -9999 -9999 6 6 9 6 11 10 11 7 7 7 10 9 15 11 11 26 22 23 27 16 6 13 7 10 15 18 19 19 11 18 19 21 20 18 21 22 22 20 21 11 16 9 9 6 6 7 8 9 21 6 7 0 7 11 22 27 20 26 22 21 27 23 26 23 25 21 26 22 20 27 26 23 27 27 27 28 24 23 26 24 25 22 23 25 27 26 23 23 23 16 10 10 9 8 10 8 8 8 19 17 15 10 7 9 11 9 10 8 5 10 11 7 7 6 10 8 10 5 5 6 7 6 6 6 7 5 4 6 6 6 10 5 6 5 4 6 6 6 6 13 5 8 7 6 6 4 8 10 7 5 7 5 6 7 6 4 5 6 6 5 6 5 9 6 7 18 8 14 10 7 5 6 5 5 7 6 7 6 9 5 6 6 6 5 7 5 5 6 6 8 8 -9999 -9999 -9999
-9999 -9999 -9999 -9999 -9999 5 10 15 7 12 7 14 12 7 5 7 10 18 14 14 17 18 6 26 22 18 7 5 5 8 14 10 21 25 13 19 23 21 12 15 6 14 21 21 17 10 13 12 8 12 12 19 6 13 18 14 7 0 12 22 22 19 23 19 19 27 29 25 25 30 7 15 25 19 26 28 28 29 29 27 26 26 21 22 19 21 22 25 24 24 24 25 25 24 13 14 16 7 16 14 13 19 17 7 16 13 14 16 9 6 15 7 22 11 10 6 11 6 7 6 5 7 6 5 6 7 18 8 6 6 6 5 6 5 8 4 5 7 7 7 6 6 5 7 7 5 7 5 6 6 11 5 7 7 7 5 8 5 7 7 5 4 7 7 6 5 3 7 6 7 10 5 7 7 8 5 6 6 5 6 0 4 6 8 5 6 3 6 3 4 5 6 10 8 7 6 -9999 -9999 -9999
-9999 -9999 -9999 -9999 -9999 5 14 17 10 9 5 6 9 10 7 6 10 21 12 12 6 19 25 26 23 23 21 23 17 18 7 4 18 17 22 22 21 18 18 21 6 8 21 23 20 10 18 10 18 9 19 17 14 8 17 15 6 0 18 22 21 21 21 18 16 27 21 27 25 26 29 28 28 28 29 23 24 28 24 27 31 25 21 22 21 20 23 21 21 24 26 23 25 25 14 10 15 6 9 6 9 22 22 17 7 10 12 8 19 14 6 10 16 16 9 4 6 7 15 6 7 5 5 7 3 7 10 6 7 6 4 6 6 8 5 6 9 8 10 6 6 5 5 6 13 6 3 4 5 8 6 5 6 6 7 6 10 6 7 4 6 5 7 5 8 6 5 6 6 10 7 10 8 11 17 12 10 10 13 5 8 7 14 8 6 3 5 5 4 5 6 4 6 8 7 17 -9999 -9999 -9999
-9999 -9999 -9999 -9999 -9999 13 13 7 7 9 8 5 5 10 7 9 13 16 8 8 23 19 23 24 23 6 7 20 19 20 18 7 13 8 23 25 8 12 20 20 13 19 22 18 17 22 16 16 13 4 18 22 18 21 8 12 7 11 20 22 17 18 21 14 23 26 23 16 11 28 28 21 27 27 27 15 30 28 22 26 27 30 24 21 19 25 19 21 21 27 27 27 26 27 13 11 16 15 6 8 12 8 19 16 6 13 17 16 19 7 8 10 10 7 7 6 6 6 7 10 16 10 7 7 6 6 6 6 6 12 12 4 6 5 6 5 5 6 6 8 9 12 5 11 6 5 5 7 8 7 11 6 6 13 6 7 7 5 7 6 6 9 7 4 5 4 9 6 8 6 5 5 5 8 6 6 7 7 13 4 6 12 12 11 3 7 7 6 5 5 6 5 8 11 13 6 -9999 -9999 -9999
-9999 -9999 -9999 -9999 -9999 15 9 9 9 22 13 12 6 6 5 6 7 20 25 25 21 24 20 9 9 6 6 6 22 11 16 18 24 21 19 18 23 30 17 21 14 14 18 6 16 17 7 19 11 5 13 15 21 22 22 22 7 11 8 11 18 21 21 24 24 23 13 7 12 10 14 22 21 26 28 16 25 31 23 26 21 21 21 21 23 22 22 22 25 31 29 26 27 25 27 22 14 12 8 11 23 8 6 12 8 7 8 7 17 14 8 6 15 11 14 12 9 6 8 9 20 12 9 7 7 6 6 6 6 6 11 7 6 7 6 6 6 11 5 6 7 5 11 6 9 8 6 11 6 6 10 6 5 8 8 8 11 7 5 3 5 10 6 5 4 10 8 6 7 7 8 8 6 6 5 5 6 14 6 7 12 8 6 12 7 6 5 8 4 6 5 13 6 20 8 4 -9999 -9999 -9999
-9999 -9999 -9999 -9999 -9999 10 10 10 7 12 10 9 10 8 8 6 7 13 17 17 16 21 21 13 5 12 5 8 7 5 5 16 19 23 9 16 19 16 23 19 17 15 17 13 10 10 10 9 12 12 20 22 18 10 20 22 13 5 12 21 7 21 23 23 6 21 12 5 17 11 16 21 22 22 28 25 25 21 25 22 23 22 22 21 21 23 23 21 23 31 26 25 28 31 26 18 8 3 7 22 8 7 7 16 25 19 6 6 6 12 8 14 9 15 10 8 18 0 6 6 11 8 7 22 10 6 6 6 6 3 14 10 6 13 14 6 7 5 16 6 6 6 8 16 5 8 9 10 14 6 6 6 7 8 7 8 9 7 6 6 7 5 9 6 5 6 9 7 7 6 6 7 8 6 6 6 6 11 7 5 6 7 7 10 9 6 3 4 7 5 5 16 8 14 19 7 -9999 -9999 -9999
-9999 -9999 -9999 -9999 -9999 12 9 6 5 8 4 10 7 7 11 7 10 15 20 20 10 12 20 16 7 9 14 16 22 17 13 18 12 16 17 7 20 26 10 18 15 15 17 20 13 18 11 6 9 16 17 18 21 23 17 23 23 6 25 21 13 20 7 6 7 22 16 6 11 10 15 16 16 22 27 25 23 27 22 23 23 19 22 19 25 22 22 23 23 22 21 20 23 32 27 16 12 6 7 23 6 8 6 23 22 15 10 7 5 10 10 7 8 10 6 5 16 5 10 7 10 7 9 16 7 7 4 7 6 6 15 6 10 9 8 14 10 6 7 6 11 5 5 6 6 6 8 9 6 6 7 12 6 7 7 11 9 7 9 6 6 6 7 6 6 5 16 9 9 8 5 5 5 7 9 7 7 5 11 6 7 5 3 6 12 8 9 5 7 6 7 10 10 10 6 5 -9999 -9999 -9999
-9999 -9999 -9999 -9999 -9999 7 11 9 6 5 6 7 0 8 11 9 12 19 19 19 18 23 13 14 12 22 22 23 13 16 7 8 11 18 9 21 13 13 19 21 21 17 22 22 11 13 21 16 23 11 11 19 22 22 22 21 22 23 21 23 9 18 10 5 8 13 21 26 19 6 6 8 15 19 21 24 21 27 21 23 23 25 24 22 22 23 25 26 25 25 25 22 25 23 23 22 5 6 6 24 22 6 7 20 23 9 9 29 22 8 6 6 6 10 7 8 9 6 11 6 5 5 6 6 6 7 4 6 6 6 7 6 3 6 6 6 9 6 6 9 7 9 5 7 9 5 4 5 6 6 6 6 9 5 5 6 6 5 6 6 6 7 6 7 6 11 6 11 6 7 4 9 5 11 7 5 6 5 7 6 6 6 6 5 6 10 7 5 6 5 7 19 7 7 11 6 -9999 -9999 -9999
-9999 -9999 -9999 -9999 -9999 4 10 4 6 4 5 8 0 8 8 7 10 16 10 10 21 10 10 0 10 13 16 4 12 9 11 12 8 9 11 20 22 19 15 6 16 16 23 22 13 7 16 22 13 10 10 6 16 17 22 22 22 21 23 23 12 21 8 8 19 22 21 22 11 13 15 9 8 19 19 23 25 25 21 19 23 23 21 23 23 23 23 24 23 24 22 10 11 23 21 19 6 6 6 6 14 5 7 11 23 9 8 23 15 16 0 7 6 6 9 12 9 6 15 6 6 5 6 13 9 6 6 6 5 6 6 10 4 6 6 7 8 7 5 5 6 8 5 3 7 10 6 7 7 5 6 11 14 6 10 7 6 6 6 5 7 4 5 7 6 8 5 9 7 4 0 0 4 8 6 9 5 5 6 9 5 5 4 9 8 10 7 6 9 3 11 14 10 16 7 6 -9999 -9999 -9999
-9999 -9999 -9999 -9999 -9999 0 9 0 7 13 6 9 6 7 7 6 11 16 9 9 12 7 10 16 6 13 9 4 10 8 5 11 10 16 16 11 21 11 11 15 6 13 18 17 21 26 21 12 10 9 19 17 21 7 25 20 25 26 24 12 8 8 8 7 11 15 16 20 22 22 21 24 16 22 21 25 23 25 22 21 22 23 21 23 23 25 25 22 23 25 27 17 9 13 8 7 8 8 11 7 6 11 9 9 6 7 12 15 16 16 9 9 12 10 11 7 10 17 18 8 10 15 6 6 6 14 9 9 7 6 6 7 5 5 7 6 8 5 6 6 6 8 7 8 5 3 6 7 15 6 4 5 10 14 9 9 9 12 6 8 8 5 6 8 10 8 5 5 5 4 3 0 7 5 11 6 6 5 5 14 9 6 7 4 6 6 4 5 6 3 3 11 11 6 5 6 -9999 -9999 -9999
-9999 -9999 -9999 -9999 -9999 6 7 11 12 8 9 6 10 6 7 7 11 16 11 11 13 14 23 23 19 11 15 5 11 15 8 10 7 11 15 17 17 13 9 8 12 18 23 22 22 20 24 20 7 25 17 18 22 30 22 27 22 7 5 13 20 7 16 7 11 8 13 13 22 16 9 15 21 26 19 15 22 27 23 23 21 23 23 23 31 25 23 21 10 26 24 17 26 13 17 6 7 7 7 11 6 7 10 8 11 8 6 8 9 13 13 13 12 11 17 16 10 11 7 3 13 8 7 6 7 7 10 7 6 7 8 7 5 6 7 7 6 5 6 8 6 6 6 9 6 6 6 5 5 6 6 6 7 8 6 6 6 3 8 5 9 7 10 6 7 13 5 4 5 5 5 4 5 14 12 7 6 7 6 5 6 6 4 6 6 7 6 5 5 5 6 17 10 5 6 13 -9999 -9999 -9999
-9999 -9999 -9999 -9999 -9999 3 8 6 5 6 7 6 7 8 5 10 11 9 10 10 19 17 9 15 13 16 10 10 16 9 7 13 17 12 8 10 5 8 5 6 5 7 6 7 14 18 27 22 9 13 18 22 21 23 26 5 7 5 5 13 17 22 16 5 6 19 19 22 9 5 11 8 23 21 27 23 25 22 23 24 25 23 22 26 27 27 31 18 7 23 24 28 27 30 8 5 6 8 6 22 7 6 6 8 7 6 6 7 7 13 17 7 16 16 17 15 14 11 11 12 7 6 6 7 7 9 5 6 6 5 7 5 6 6 5 9 8 8 6 7 6 10 7 5 5 8 7 7 4 9 15 7 6 6 7 6 5 5 3 5 6 6 6 6 5 8 5 6 6 7 6 5 4 0 5 6 4 8 6 8 4 6 5 6 6 6 6 3 6 6 4 5 10 10 14 9 -9999 -9999 -9999
-9999 -9999 -9999 -9999 -9999 6 11 13 9 5 7 5 5 9 10 9 12 11 11 11 7 6 4 9 12 16 11 12 11 12 12 17 16 14 8 16 16 20 6 9 10 5 5 10 9 10 21 26 23 6 17 23 21 27 23 26 27 5 7 6 19 16 12 18 8 5 18 18 22 20 16 19 17 24 23 23 23 25 26 24 21 20 25 21 25 30 27 27 25 31 30 25 26 27 6 6 6 7 6 5 20 9 5 9 13 9 7 6 3 9 19 20 14 14 20 17 10 7 8 10 13 7 7 13 7 14 10 5 7 6 7 5 13 7 5 4 5 7 7 6 8 5 7 6 5 4 8 11 5 5 19 5 5 6 7 7 6 6 10 5 6 7 7 4 7 5 6 6 6 14 4 5 5 6 5 7 6 5 10 7 9 5 6 6 5 5 5 6 5 4 0 6 15 15 8 11 -9999 -9999 -9999
-9999 -9999 -9999 -9999 -9999 11 7 7 6 6 6 9 12 10 6 17 6 11 7 7 6 9 7 6 11 10 7 6 12 11 11 13 14 18 9 13 19 18 8 7 16 14 16 16 13 13 18 18 13 13 24 22 25 25 22 26 26 7 11 7 13 16 9 3 5 10 7 20 20 21 11 20 22 23 22 20 22 20 23 13 3 7 27 24 27 28 25 31 27 29 31 26 25 8 3 7 8 6 6 11 4 5 6 6 5 8 0 7 6 3 6 7 6 11 11 10 13 8 9 8 15 7 9 0 7 6 12 5 7 8 6 6 15 8 7 7 6 5 5 6 5 8 10 6 6 7 6 7 6 8 5 9 5 9 6 6 6 7 6 6 6 10 6 6 6 6 6 8 6 9 3 6 6 5 6 6 6 5 0 6 5 5 6 7 7 5 5 6 5 3 5 7 6 16 7 7 -9999 -9999 -9999
-9999 -9999 -9999 -9999 -9999 4 7 7 9 12 10 10 7 7 8 7 9 14 9 9 10 6 20 16 16 9 7 5 0 10 10 13 8 8 22 16 15 15 12 7 14 20 18 16 19 6 11 7 4 7 18 23 14 24 22 22 26 4 3 13 13 19 11 6 3 8 15 21 19 18 20 21 23 11 18 21 22 22 10 7 7 19 27 23 25 27 25 28 27 27 27 19 13 9 6 8 5 6 16 7 8 5 6 5 6 7 6 5 9 9 6 7 8 9 5 7 4 6 7 5 8 12 6 8 10 7 19 7 7 14 9 7 5 6 10 5 6 8 5 4 6 6 6 10 6 5 5 4 15 14 6 6 6 6 6 6 5 6 6 7 6 14 5 6 6 8 7 7 9 6 8 9 6 4 6 6 6 5 3 0 3 6 6 6 6 6 5 7 8 6 5 4 8 5 7 12 -9999 -9999 -9999
-9999 -9999 -9999 -9999 -9999 8 6 8 9 10 9 10 10 5 4 7 6 6 10 10 7 9 6 10 12 11 6 6 7 6 11 8 10 13 20 18 7 12 6 9 10 14 9 13 11 8 6 13 12 7 9 17 27 22 17 18 20 13 6 19 7 18 10 7 3 9 16 21 23 4 10 18 18 13 20 23 20 7 4 8 13 25 23 22 21 21 27 29 28 28 28 14 7 7 5 10 6 5 6 5 8 7 6 7 8 10 11 7 21 7 7 16 8 5 6 8 6 7 13 6 7 15 6 6 16 6 16 6 6 4 6 11 10 5 10 4 5 7 7 4 7 4 10 4 16 18 0 7 6 8 6 3 7 7 10 6 8 6 14 16 6 7 9 6 7 12 12 9 12 6 7 5 10 9 5 5 6 4 0 6 4 5 7 5 6 6 5 4 6 7 5 4 6 6 7 6 -9999 -9999 -9999
-9999 -9999 -9999 -9999 -9999 12 5 11 10 12 10 16 8 5 6 5 5 5 7 7 7 6 8 11 10 13 13 16 5 6 13 11 8 7 7 9 10 7 9 12 6 6 6 18 4 9 17 23 9 12 11 23 18 18 14 3 6 6 17 20 20 19 19 18 10 6 14 13 11 10 11 21 19 22 22 14 10 18 12 18 15 22 22 21 20 23 32 22 23 22 21 20 23 6 6 15 9 4 5 8 7 14 17 18 15 6 7 15 21 7 8 7 6 8 9 9 15 3 13 16 6 5 9 4 11 6 11 11 15 10 6 8 7 7 8 5 7 12 7 5 6 4 7 5 8 10 4 6 6 3 7 5 7 11 9 5 6 7 10 7 4 6 6 6 5 7 13 8 14 6 6 4 5 6 7 6 4 5 5 4 4 6 6 9 5 5 7 8 5 7 6 6 7 7 7 7 -9999 -9999 -9999
-9999 -9999 -9999 -9999 -9999 6 5 10 3 6 7 7 9 10 6 6 7 4 7 7 8 17 9 11 14 11 10 13 7 23 10 6 15 8 14 7 6 4 10 10 15 6 8 13 7 18 9 12 9 21 25 23 23 25 7 7 14 7 16 13 19 21 22 17 5 13 13 18 16 8 15 15 23 23 21 23 22 22 22 22 25 23 25 24 27 29 23 23 22 20 18 11 22 5 6 16 5 9 7 6 9 6 7 7 13 6 6 14 16 13 10 12 4 6 7 17 10 7 8 17 5 6 9 7 6 7 20 10 5 5 8 5 7 5 6 6 7 5 7 6 6 5 8 9 5 6 11 5 5 6 6 6 11 9 10 11 6 6 6 8 5 14 6 6 7 8 6 17 12 14 7 13 7 6 5 7 7 8 5 0 0 6 5 5 7 6 6 5 5 7 5 6 8 7 6 6 -9999 -9999 -9999
-9999 -9999 -9999 -9999 -9999 7 5 4 0 3 3 5 10 7 8 6 7 6 6 6 19 8 9 17 16 8 12 11 12 11 9 10 11 9 10 12 11 5 9 10 13 11 11 12 12 16 9 12 23 27 22 22 19 13 20 24 18 19 5 8 9 17 22 21 9 6 5 11 16 14 16 16 18 17 19 23 21 25 23 24 29 28 25 25 25 22 23 22 23 19 12 17 21 17 16 9 6 7 6 17 6 4 13 8 10 15 6 6 8 7 11 6 0 7 7 6 7 7 11 7 6 5 7 7 7 6 7 10 7 6 5 5 7 6 6 7 6 8 6 6 6 7 7 10 9 6 9 5 5 7 4 6 8 13 14 9 8 11 12 3 6 8 8 6 5 6 8 10 11 14 14 12 4 5 7 5 7 4 3 0 5 6 13 5 6 5 5 10 5 4 6 6 6 10 8 6 -9999 -9999 -9999
-9999 -9999 -9999 -9999 -9999 6 0 3 0 6 5 10 5 7 7 7 3 3 4 4 5 9 9 16 10 10 12 11 18 9 7 18 6 3 10 9 7 4 16 20 7 12 14 20 19 13 13 10 7 22 14 12 13 3 11 9 11 21 6 6 11 19 25 19 27 10 12 7 16 19 5 12 20 21 18 22 26 22 20 22 23 27 25 22 28 22 21 21 20 6 4 18 18 15 18 9 5 6 6 6 6 8 7 11 12 12 5 0 5 6 8 16 11 5 8 5 6 8 15 18 5 4 6 6 13 6 9 6 4 7 7 7 6 6 6 7 6 6 11 7 6 6 6 6 20 7 7 8 7 6 7 6 6 7 7 7 7 7 5 0 7 7 15 14 6 5 7 8 13 13 16 16 6 10 6 5 4 4 6 6 5 6 5 5 6 8 5 6 5 10 7 6 7 7 12 10 -9999 -9999 -9999
-9999 -9999 -9999 -9999 -9999 0 0 3 0 6 17 6 9 12 11 18 6 7 8 8 7 16 9 12 10 8 17 17 15 9 7 7 9 11 8 11 4 6 10 11 11 9 13 22 19 10 13 12 12 16 18 21 19 15 15 9 7 6 7 10 21 22 23 24 21 29 7 5 4 7 6 9 23 28 32 30 25 22 24 23 31 28 26 24 23 7 9 6 9 11 9 9 14 8 17 7 7 6 7 8 9 7 17 20 6 9 7 7 13 22 6 7 6 8 8 6 6 5 9 8 10 10 5 5 10 7 13 6 6 6 5 6 6 5 5 8 6 6 8 6 7 4 7 8 7 9 7 7 7 6 7 6 6 6 10 8 6 4 7 6 5 13 13 6 6 9 7 8 16 13 14 6 8 9 6 6 4 6 0 9 6 9 6 6 5 6 6 12 5 5 6 7 10 6 8 7 -9999 -9999 -9999
-9999 -9999 -9999 -9999 -9999 6 0 7 4 7 12 6 3 6 5 12 8 9 6 6 7 9 8 15 7 14 15 15 18 12 9 5 6 8 9 8 13 9 13 7 13 13 18 18 13 22 17 10 11 13 17 20 20 21 23 10 11 11 7 7 26 20 19 23 27 23 6 7 6 5 6 7 24 26 33 31 33 29 22 28 25 30 25 23 20 8 6 5 7 6 6 8 8 7 9 16 13 5 6 6 9 10 13 19 10 14 6 5 10 7 7 5 7 6 6 4 6 5 5 5 6 7 10 6 9 9 9 6 6 6 14 13 5 8 5 6 8 6 6 13 5 8 9 6 7 6 7 9 9 6 5 6 5 6 4 7 6 6 8 6 10 6 8 5 4 7 9 7 17 18 14 7 6 4 0 5 0 7 0 6 12 11 8 6 7 12 6 15 4 6 6 0 6 10 17 8 -9999 -9999 -9999
-9999 -9999 -9999 -9999 -9999 7 4 6 12 11 7 5 6 5 7 4 5 4 6 6 14 12 16 12 16 6 11 10 11 7 6 12 6 6 6 7 6 12 8 12 10 11 11 10 10 15 10 10 6 8 10 17 22 19 17 8 8 15 22 22 22 21 18 15 25 22 8 18 8 7 5 11 28 31 33 28 17 10 25 24 25 9 27 9 9 6 6 6 6 8 7 8 7 6 14 21 10 6 10 7 8 6 9 13 13 11 12 7 8 8 7 10 6 6 6 6 10 10 7 5 8 12 11 6 10 9 6 6 6 8 5 10 5 6 7 6 15 9 6 7 7 16 6 19 8 11 6 9 7 11 12 8 9 5 6 5 6 7 6 6 10 9 7 4 4 7 6 8 7 9 7 10 5 5 5 4 6 4 0 7 6 5 8 10 5 8 6 8 9 7 6 0 6 8 8 14 -9999 -9999 -9999
-9999 -9999 -9999 -9999 -9999 6 3 9 5 7 12 9 11 11 8 10 7 7 7 7 6 18 10 7 4 16 8 4 16 11 7 11 12 4 7 10 10 16 16 7 12 12 8 8 14 14 5 9 9 8 10 9 19 18 18 6 7 10 21 23 21 18 23 19 17 12 8 17 17 18 11 16 20 32 27 25 9 9 20 27 18 9 24 8 12 8 16 6 3 9 17 15 9 24 17 16 6 9 8 5 10 5 6 10 9 7 7 9 6 7 6 5 6 6 6 7 7 6 5 6 6 7 15 11 8 13 6 7 9 9 7 10 9 8 7 11 8 7 11 6 6 11 6 16 16 6 6 4 7 6 8 9 4 4 7 5 6 5 5 7 7 6 6 5 5 6 6 5 7 13 22 10 6 7 6 5 6 4 3 4 9 7 6 7 5 5 5 6 10 5 5 0 6 7 15 12 -9999 -9999 -9999
-9999 -9999 -9999 -9999 -9999 0 5 9 8 18 21 21 23 19 20 17 10 6 11 11 10 22 14 3 5 10 9 5 3 12 12 12 8 8 7 9 9 6 12 13 13 6 7 11 5 6 7 7 16 16 14 10 10 18 18 23 20 21 22 21 20 24 23 21 24 10 14 16 17 23 21 23 22 24 26 20 26 25 24 20 8 10 18 10 9 6 21 8 6 6 10 9 6 18 9 11 4 4 7 5 6 7 6 8 9 6 9 6 10 15 4 5 5 7 7 13 7 6 6 6 6 6 15 8 6 6 6 6 8 7 6 5 6 6 7 7 14 7 5 6 5 10 7 9 5 5 6 6 17 8 8 8 6 5 8 5 4 6 5 7 7 9 8 6 6 6 7 5 7 11 16 8 6 5 6 8 4 5 7 6 6 6 7 7 9 7 5 6 8 11 5 0 7 7 12 9 -9999 -9999 -9999
-9999 -9999 -9999 -9999 -9999 4 7 9 15 16 18 17 16 11 5 3 7 8 9 9 3 8 17 6 12 13 6 8 7 4 19 6 9 10 7 6 10 8 11 7 9 7 6 9 7 7 7 21 21 22 16 16 16 16 19 21 17 23 20 18 23 24 22 23 20 16 15 21 21 21 18 25 33 28 23 24 25 25 16 10 8 11 16 11 20 10 7 10 7 5 8 6 8 13 8 7 21 13 7 6 10 18 20 10 6 7 0 3 11 16 6 7 5 7 6 7 6 10 8 6 8 6 7 13 11 7 6 7 8 7 6 5 5 6 7 7 6 7 7 9 6 6 9 13 14 10 5 7 9 5 6 11 6 7 6 9 8 6 3 5 5 6 7 6 8 6 9 5 6 9 14 9 5 4 6 3 3 0 5 6 7 6 6 6 6 7 8 6 6 6 9 6 10 10 19 7 -9999 -9999 -9999
-9999 -9999 -9999 -9999 -9999 12 8 14 19 8 12 11 15 7 10 9 6 6 17 17 14 10 7 11 11 11 9 9 11 5 4 16 9 6 9 7 7 8 11 13 13 12 5 6 10 11 10 26 25 27 20 21 22 24 15 16 25 22 22 22 23 23 23 18 18 17 21 19 22 18 21 25 33 25 29 25 23 16 6 6 5 6 7 12 11 10 7 8 7 5 8 9 7 6 9 6 20 14 14 6 8 15 6 16 18 16 7 5 6 8 8 5 4 5 13 8 6 5 6 5 5 6 13 5 8 7 11 5 8 7 6 7 4 7 7 6 7 4 7 5 10 7 8 14 9 7 5 12 7 5 6 11 7 16 5 8 5 6 5 6 10 8 7 7 7 5 6 6 10 15 14 10 6 6 6 7 0 6 5 6 6 11 6 6 7 6 17 7 7 7 8 6 0 7 7 7 -9999 -9999 -9999
-9999 -9999 -9999 -9999 -9999 11 15 19 21 11 10 13 17 14 16 8 7 10 7 7 8 6 13 4 10 6 9 9 5 10 9 18 7 6 8 7 15 12 12 7 7 16 8 7 7 8 6 12 10 25 22 19 22 22 22 26 23 22 25 22 22 23 20 17 18 19 23 22 22 22 22 22 23 23 24 19 20 12 17 6 7 6 6 9 6 14 11 7 11 11 13 9 5 5 6 6 12 13 10 12 4 17 7 10 16 6 8 5 9 7 4 6 5 6 5 6 7 7 6 6 6 6 6 6 7 6 6 12 7 6 5 7 5 6 6 7 5 6 4 4 7 7 6 9 6 8 7 9 6 9 6 9 6 5 6 7 7 5 5 6 5 7 7 6 6 6 7 7 5 7 8 8 5 7 5 3 0 0 7 4 6 5 7 5 6 5 9 7 6 4 6 8 0 4 7 8 -9999 -9999 -9999
-9999 -9999 -9999 -9999 -9999 -9999 11 22 13 16 13 8 15 8 6 6 11 10 15 15 12 11 6 5 7 10 10 14 12 10 9 18 16 6 6 7 11 20 11 19 9 10 7 14 9 7 13 11 18 23 26 26 21 26 25 26 22 14 24 23 8 19 20 17 21 22 23 21 23 23 22 23 27 27 31 21 23 25 16 6 7 7 6 6 10 10 6 10 12 9 9 9 16 14 6 6 6 5 10 9 7 13 10 14 13 5 10 8 5 24 7 5 7 7 5 7 7 6 6 5 7 6 6 6 9 6 7 15 7 5 6 6 10 15 6 5 6 8 6 4 5 5 5 5 9 6 7 10 6 7 3 12 9 6 7 6 5 7 6 6 5 9 5 6 6 5 5 6 6 6 13 7 6 5 6 3 6 0 9 3 8 8 6 6 9 7 11 6 7 4 7 5 7 6 6 7 -9999 -9999 -9999
-9999 -9999 -9999 -9999 -9999 -9999 19 10 17 7 12 23 21 20 8 14 11 7 16 16 6 5 4 5 3 0 6 12 15 9 16 10 11 9 11 13 15 19 7 11 7 12 6 12 16 23 22 13 12 14 24 19 17 14 21 22 20 26 26 27 6 18 21 22 26 23 24 25 27 28 22 31 31 26 26 28 22 23 6 6 9 9 5 6 6 8 8 7 9 7 11 10 9 7 12 8 5 7 6 5 8 13 15 14 8 7 10 3 7 18 7 16 9 12 6 6 6 5 3 7 7 6 5 5 5 6 8 10 6 6 7 5 5 7 8 5 7 7 5 5 6 5 7 3 6 7 5 6 7 7 8 7 6 6 3 4 5 4 9 6 9 8 7 12 6 10 6 6 6 3 6 9 7 5 6 6 5 0 4 3 8 7 5 6 6 8 14 14 7 5 7 3 4 8 8 7 -9999 -9999 -9999
-9999 -9999 -9999 -9999 -9999 -9999 18 4 13 24 19 22 18 18 8 0 3 6 4 4 10 7 6 6 6 10 3 12 12 16 11 7 9 8 17 13 13 16 14 7 6 19 7 14 15 9 7 27 26 7 11 7 7 24 25 20 20 21 20 19 18 16 25 23 20 25 25 21 27 26 28 27 28 23 27 19 26 14 10 6 6 9 12 8 6 5 5 7 3 5 7 12 6 7 6 12 7 11 6 6 5 20 20 5 7 0 10 7 7 7 6 7 10 13 9 6 6 6 5 0 5 6 4 5 6 6 5 6 6 5 7 6 6 15 6 7 7 6 6 5 7 7 6 7 7 7 6 5 6 7 5 7 7 9 6 12 5 6 5 7 9 8 9 6 8 12 7 5 5 6 5 8 10 8 7 4 5 5 5 12 5 12 7 7 4 7 7 11 7 9 6 6 0 10 7 6 -9999 -9999 -9999
-9999 -9999 -9999 -9999 -9999 -9999 9 9 15 25 17 9 8 12 12 12 6 4 7 7 14 15 13 7 10 7 3 5 7 17 8 6 5 12 16 9 8 18 8 15 7 10 15 12 19 10 17 24 23 20 6 16 22 13 5 23 20 23 22 17 19 26 20 26 23 20 25 27 25 27 29 25 28 28 27 23 26 8 6 6 5 7 7 7 8 10 15 8 4 6 6 7 10 12 6 7 17 7 8 10 5 10 9 7 7 7 6 7 7 3 11 6 9 9 7 18 10 4 7 6 6 6 4 7 4 6 10 8 8 6 11 6 9 8 6 9 6 6 7 5 7 6 5 6 11 6 5 6 10 5 4 6 8 6 9 6 9 14 6 7 4 5 9 6 17 9 8 9 12 6 5 10 7 7 15 6 6 5 4 4 6 6 6 3 3 5 7 9 6 7 7 3 6 7 8 12 7 -9999 -9999
-9999 -9999 -9999 -9999 -9999 -9999 12 15 22 12 7 3 0 16 10 7 7 11 17 17 19 9 7 18 17 5 0 4 6 7 6 7 6 11 12 21 18 20 13 12 7 9 14 14 9 19 10 13 13 17 12 20 20 15 6 8 19 23 18 18 23 23 23 21 17 27 21 25 31 22 25 25 22 24 22 24 10 6 7 6 8 9 7 6 11 8 17 5 5 5 6 5 5 9 7 4 9 9 7 7 6 7 17 6 6 6 6 7 6 6 20 0 10 7 8 17 11 5 4 5 6 6 6 5 9 6 10 6 6 9 6 6 5 5 6 6 15 6 8 5 7 9 0 7 7 14 9 4 5 5 5 5 7 5 9 7 7 8 5 6 6 5 14 4 9 11 10 7 6 8 5 6 6 6 11 7 7 4 4 5 5 7 4 11 6 5 6 13 9 5 8 7 5 9 6 8 7 -9999 -9999
-9999 -9999 -9999 -9999 -9999 -9999 11 22 21 22 17 8 10 11 13 5 8 10 9 9 5 8 10 7 8 5 0 5 8 7 6 7 9 11 16 7 10 12 9 15 15 17 17 23 19 23 19 7 13 13 12 23 19 22 20 10 22 22 25 25 22 25 12 21 15 19 22 25 24 24 23 21 23 25 19 18 9 4 5 10 8 6 5 6 7 7 18 15 4 5 4 4 4 5 3 5 8 7 6 7 7 21 15 8 9 6 8 10 11 18 18 10 6 16 22 7 8 5 5 6 7 6 7 5 10 4 5 8 6 6 12 6 11 6 9 5 10 9 17 5 5 3 4 6 11 7 11 14 5 5 5 6 3 4 6 6 8 8 6 7 5 10 5 5 4 7 10 9 5 6 4 7 7 6 7 7 7 4 5 6 4 6 7 4 8 6 9 12 6 10 7 7 6 8 13 8 14 -9999 -9999
-9999 -9999 -9999 -9999 -9999 -9999 22 22 20 21 28 12 7 13 10 11 5 12 10 10 9 3 5 7 5 6 4 6 11 13 5 8 11 14 10 8 10 5 7 19 18 16 21 18 19 16 17 16 22 8 12 17 18 16 21 22 21 21 17 23 22 8 19 23 16 25 23 26 25 25 23 24 23 21 23 4 6 8 8 10 8 7 6 6 6 11 9 16 7 13 8 14 8 10 5 5 6 5 9 9 6 20 21 6 7 6 15 9 7 7 6 5 8 13 21 7 10 6 9 8 6 5 5 10 6 7 3 5 15 8 8 14 12 5 9 7 5 14 5 7 6 5 6 9 9 8 7 8 9 4 5 5 6 6 5 5 5 13 7 8 0 6 6 6 5 0 4 7 9 8 3 8 7 6 5 7 8 5 6 6 6 6 5 6 8 6 6 5 8 6 5 6 8 6 7 7 6 -9999 -9999
-9999 -9999 -9999 -9999 -9999 -9999 24 13 20 22 21 19 7 3 8 9 7 8 10 10 14 6 6 9 3 8 5 4 9 11 14 12 5 6 8 7 6 9 12 15 22 16 12 17 16 17 21 14 16 9 9 7 20 6 11 21 21 21 23 23 24 7 12 23 17 23 23 29 26 21 21 19 23 16 10 5 8 3 8 16 7 5 10 7 5 5 7 12 7 14 16 10 7 6 6 5 12 6 7 5 6 7 12 14 11 6 6 10 15 22 10 0 7 9 16 7 15 5 5 7 7 7 6 9 10 8 0 6 12 8 10 7 6 15 6 7 7 10 6 7 4 3 7 4 8 12 10 10 9 5 6 7 6 6 6 6 4 5 5 6 6 7 6 5 7 5 9 6 11 6 8 4 11 11 5 7 5 5 5 6 4 5 7 6 6 7 8 4 6 5 7 7 5 0 9 7 7 -9999 -9999
-9999 -9999 -9999 -9999 -9999 -9999 7 7 16 13 17 16 12 5 4 4 11 5 7 7 13 6 6 9 5 11 14 7 7 7 11 6 7 12 6 13 12 11 13 18 18 22 22 18 24 21 25 11 9 7 7 19 20 13 22 22 21 22 28 23 23 6 20 23 14 22 25 28 31 27 24 17 6 3 7 10 9 9 16 9 8 6 6 12 9 7 7 12 8 8 5 6 7 6 10 11 6 8 22 22 8 4 11 11 15 11 5 7 14 6 20 3 7 5 5 6 5 6 14 6 6 5 5 11 6 7 6 5 12 11 5 8 8 18 9 5 6 15 4 7 6 3 6 6 6 11 6 7 14 7 7 6 8 6 5 6 5 6 9 6 7 8 5 4 7 6 6 5 6 6 6 10 17 17 7 6 6 5 6 6 4 6 6 6 5 6 6 5 6 7 0 6 5 0 6 9 6 -9999 -9999
-9999 -9999 -9999 -9999 -9999 -9999 12 10 8 7 10 6 9 18 7 0 5 0 0 0 0 10 10 10 7 6 7 9 4 7 13 5 6 8 5 8 19 18 11 16 16 11 21 20 13 7 12 20 21 10 7 21 25 26 22 22 21 22 23 16 15 9 16 24 20 25 17 29 24 19 11 6 6 7 7 7 10 9 6 9 6 6 9 7 0 10 4 8 7 4 3 13 15 6 3 7 9 13 24 23 6 7 15 6 7 8 7 18 8 7 13 5 6 11 6 9 9 16 8 6 6 5 5 7 7 8 4 3 7 7 7 9 9 7 11 12 6 13 4 5 7 6 13 8 7 11 7 5 10 8 5 6 6 5 5 6 5 5 6 6 17 6 7 6 5 10 6 8 6 5 8 4 7 13 13 8 6 6 8 9 9 6 9 8 0 4 6 6 6 6 0 0 7 7 5 7 6 -9999 -9999
-9999 -9999 -9999 -9999 -9999 -9999 15 7 20 21 6 7 14 14 10 3 6 4 11 11 9 0 11 8 6 8 18 12 12 16 14 7 6 9 11 7 7 5 11 7 8 13 19 13 6 6 13 7 11 20 22 18 26 12 22 11 25 19 25 25 25 9 8 17 25 25 26 25 20 16 4 3 7 5 7 9 5 9 7 6 7 7 3 7 8 0 0 0 0 0 6 0 7 14 9 13 10 8 7 6 7 6 7 6 6 3 7 8 7 13 12 4 8 10 6 5 6 7 7 10 5 6 4 6 7 15 15 6 6 6 7 7 7 8 7 7 5 6 6 5 8 0 10 7 10 6 6 7 6 8 6 6 6 5 10 6 5 5 6 8 7 4 7 8 6 6 6 6 5 0 9 7 16 25 14 6 10 5 6 9 3 7 6 4 5 8 5 6 17 7 6 6 0 8 5 7 7 -9999 -9999
-9999 -9999 -9999 -9999 -9999 -9999 16 10 17 12 10 7 7 19 7 7 3 7 10 10 7 4 11 6 9 6 7 7 6 10 6 7 6 8 10 6 16 8 6 5 7 10 7 6 9 16 20 12 7 9 19 18 11 21 21 12 17 26 25 19 13 10 25 22 22 27 11 28 6 7 7 3 6 5 8 5 7 7 9 7 6 7 0 5 3 3 5 3 5 5 3 0 10 8 8 6 5 4 8 3 6 18 5 6 8 5 7 0 3 4 7 6 8 7 16 7 12 6 5 6 7 5 5 5 4 6 6 3 5 6 6 4 5 7 6 6 6 5 4 6 4 8 7 8 8 9 12 6 6 6 6 6 7 8 8 5 6 7 5 11 11 8 8 7 7 7 10 6 0 3 5 9 13 21 23 9 7 5 5 3 4 13 5 6 5 5 5 8 5 9 8 5 3 12 9 7 6 -9999 -9999
-9999 -9999 -9999 -9999 -9999 -9999 10 6 5 11 11 9 9 9 9 9 4 7 6 6 7 8 7 10 0 7 8 6 7 6 12 8 9 11 8 8 14 7 9 7 7 8 12 7 8 11 12 9 17 17 6 22 8 13 9 18 19 21 11 19 25 22 23 21 12 13 12 7 4 9 6 9 13 13 6 5 3 5 8 3 0 5 5 7 4 0 3 5 6 6 8 6 7 6 9 6 10 13 9 5 5 5 0 7 14 6 8 4 5 5 7 7 9 9 6 6 13 6 7 6 6 5 5 7 7 10 16 6 6 17 7 6 6 6 5 6 6 6 4 5 5 10 8 9 7 6 5 6 10 6 7 6 0 4 6 6 6 3 7 11 5 6 6 8 7 7 6 9 9 5 6 16 19 23 28 7 6 6 6 6 5 6 6 6 7 5 11 6 5 3 0 4 6 6 7 7 8 -9999 -9999
-9999 -9999 -9999 -9999 -9999 -9999 7 6 10 11 8 8 12 13 5 8 7 8 7 7 8 11 12 10 6 13 8 7 6 3 7 8 11 12 7 5 7 8 6 6 6 8 8 17 15 20 22 25 20 9 23 10 9 14 21 19 19 26 11 16 9 21 26 24 14 6 6 5 4 4 6 9 5 7 7 7 6 0 3 0 5 5 6 6 5 4 4 3 7 6 9 7 7 10 7 6 10 18 3 4 4 3 3 10 6 11 6 7 5 5 5 9 3 8 5 6 6 7 5 10 5 6 4 9 0 8 15 15 6 17 17 7 14 8 8 16 6 6 4 6 4 8 3 8 7 6 11 7 7 6 10 6 7 8 6 5 4 5 5 7 4 12 6 6 5 6 5 8 8 7 5 8 6 19 26 8 10 16 7 4 5 4 6 6 5 11 6 7 4 0 5 4 8 4 8 5 7 -9999 -9999
-9999 -9999 -9999 -9999 -9999 -9999 8 3 5 5 4 7 13 7 12 11 4 5 7 7 9 10 10 8 4 11 11 12 8 11 13 7 12 14 5 8 6 5 7 14 9 12 10 16 23 20 20 25 22 23 22 22 18 9 22 20 22 22 14 23 23 20 25 27 14 5 6 6 5 7 6 6 5 8 8 6 6 4 5 4 7 6 8 4 6 6 6 7 6 6 6 5 7 21 18 8 15 25 9 10 4 4 0 12 11 3 11 11 6 6 3 5 13 3 6 6 8 8 10 7 6 6 9 3 5 7 9 15 10 10 17 9 9 7 7 16 7 6 4 7 7 6 8 7 4 9 5 7 8 10 10 9 5 8 5 6 5 4 8 20 6 5 7 6 5 6 6 4 6 5 6 6 8 11 13 13 6 18 9 8 7 7 5 6 5 12 5 9 7 8 7 6 5 8 6 7 6 -9999 -9999
-9999 -9999 -9999 -9999 -9999 -9999 5 3 7 6 5 11 5 5 4 8 8 14 12 12 12 7 7 4 3 6 5 7 7 5 8 7 4 8 19 17 8 4 11 5 10 11 10 26 10 9 25 11 21 22 19 22 15 18 23 11 14 22 21 23 22 21 15 15 9 8 14 11 6 5 6 6 5 5 4 6 8 6 7 3 4 5 5 6 5 7 6 9 21 5 11 6 6 11 6 13 19 7 9 16 4 5 4 10 14 6 13 15 4 7 12 5 7 11 7 10 5 6 6 7 7 9 7 3 3 7 7 14 7 12 10 10 4 9 10 7 6 7 8 5 6 3 5 5 7 8 7 11 9 12 6 10 5 7 7 6 6 5 7 10 8 4 8 6 8 6 5 5 5 6 5 5 6 6 7 7 3 7 9 14 10 6 6 6 6 6 7 5 5 4 6 10 6 6 7 7 7 -9999 -9999
-9999 -9999 -9999 -9999 -9999 -9999 0 4 5 6 14 19 10 11 7 13 12 9 10 10 16 11 5 6 6 6 7 7 11 8 7 16 6 9 17 25 16 8 8 6 8 13 17 18 21 21 26 7 9 18 20 17 22 22 16 19 9 20 22 22 23 23 19 16 13 13 12 8 6 7 4 9 5 5 5 7 12 6 5 6 4 4 5 4 10 7 6 15 10 6 10 5 11 8 5 9 8 9 9 20 7 6 7 7 12 10 21 10 11 17 10 5 6 3 0 10 7 10 17 7 7 6 5 5 6 7 6 6 8 6 12 4 5 12 10 6 6 6 6 4 4 3 4 5 6 5 8 9 6 8 9 6 6 7 8 11 7 8 6 12 5 3 6 5 8 7 4 4 5 6 5 5 7 5 5 6 6 7 6 7 10 11 8 3 4 7 7 5 5 4 6 12 6 6 6 10 14 -9999 -9999
-9999 -9999 -9999 -9999 -9999 -9999 6 6 7 6 5 5 5 7 17 9 12 18 8 8 9 12 8 5 15 5 5 8 5 9 5 7 12 16 8 11 11 15 11 5 11 7 14 25 7 23 21 21 15 7 15 11 16 21 23 14 11 22 22 21 23 18 24 25 23 7 3 4 6 7 12 7 4 6 5 13 8 7 6 5 5 4 5 6 6 8 6 10 8 6 6 6 10 7 7 6 5 8 7 7 5 8 8 7 10 15 7 15 21 19 6 3 5 4 0 6 7 11 9 8 9 6 7 6 6 7 16 8 5 5 8 3 6 12 9 6 5 7 6 6 6 3 3 0 5 7 7 8 3 7 6 7 0 7 6 7 5 6 6 6 5 8 6 6 5 6 7 0 5 5 3 7 7 7 6 8 10 8 0 0 6 9 7 7 7 5 4 5 5 0 7 6 6 5 8 10 6 -9999 -9999
-9999 -9999 -9999 -9999 -9999 -9999 0 5 7 9 7 8 5 7 11 9 11 11 6 6 8 12 18 11 4 5 5 15 18 11 17 8 12 12 9 13 12 9 20 5 5 10 22 21 21 22 15 22 14 5 10 8 16 19 23 15 15 22 22 23 23 23 27 18 25 17 10 8 6 13 7 5 6 5 7 6 6 7 5 10 6 5 6 4 3 0 6 12 9 16 12 12 8 10 7 9 11 15 14 19 10 7 7 7 7 14 8 22 6 9 7 9 7 6 6 7 7 9 10 11 15 5 6 5 6 8 10 18 6 6 13 16 6 6 10 7 6 9 6 6 5 9 8 6 5 6 6 12 4 5 5 6 8 6 7 4 7 5 5 15 5 7 5 6 4 5 7 3 5 4 7 6 7 6 7 5 7 6 4 3 6 7 8 10 6 6 8 6 6 4 7 6 6 6 5 6 8 -9999 -9999
-9999 -9999 -9999 -9999 -9999 -9999 3 0 4 6 9 5 7 6 7 0 7 7 7 7 5 5 7 11 6 5 6 13 17 9 18 19 18 11 7 11 7 16 18 20 23 7 9 19 9 16 6 22 21 11 8 9 7 11 7 21 26 25 22 23 24 22 20 21 20 19 8 7 12 6 5 5 6 8 7 6 8 4 9 19 16 7 6 5 3 4 8 7 7 11 5 13 10 19 24 11 20 21 16 20 20 16 15 14 10 5 11 16 10 7 10 14 9 7 6 6 6 8 6 11 7 16 7 8 9 5 7 6 6 5 8 11 7 5 8 8 7 6 7 5 5 0 4 8 5 5 6 6 3 5 8 5 6 6 7 8 9 5 5 6 8 6 3 4 5 5 5 0 7 5 5 6 6 8 9 7 6 7 5 6 6 6 7 7 7 6 5 5 7 7 10 10 7 6 10 5 6 -9999 -9999
-9999 -9999 -9999 -9999 -9999 -9999 3 0 0 7 5 6 10 7 12 7 7 7 7 7 7 4 8 8 11 17 4 12 12 7 17 16 11 19 22 9 7 20 20 23 18 7 9 17 13 15 13 20 5 13 10 5 5 5 11 23 27 21 24 22 23 24 25 28 18 23 19 9 6 6 9 5 3 4 7 7 6 5 7 17 15 7 6 9 5 5 6 17 6 7 5 7 18 8 21 23 11 22 6 8 22 23 14 10 11 10 14 15 6 14 16 13 7 6 7 6 6 15 8 6 6 17 23 20 9 7 6 7 9 5 6 6 7 0 7 7 6 6 10 10 3 3 4 7 8 9 12 4 6 14 12 3 3 8 9 6 0 3 4 5 7 7 7 5 5 5 6 9 6 0 5 4 5 6 6 4 6 4 4 5 6 4 9 6 6 7 10 5 6 5 5 10 10 7 9 6 4 -9999 -9999
-9999 -9999 -9999 -9999 -9999 -9999 3 0 4 3 6 7 5 0 6 11 4 4 7 7 16 10 9 5 11 16 10 10 17 17 16 19 21 13 12 6 7 18 12 11 13 8 6 10 18 10 6 22 17 4 8 6 9 6 6 17 21 21 24 21 23 27 26 27 26 13 18 8 4 8 6 10 7 4 6 6 6 9 14 18 20 14 7 4 5 7 8 15 6 7 12 18 10 7 17 7 6 13 3 8 9 7 16 9 22 19 17 9 14 11 9 7 8 7 7 3 14 6 6 7 6 6 14 7 8 7 7 7 10 11 6 5 8 4 9 6 6 5 5 7 3 0 3 6 7 5 13 4 4 7 12 6 6 7 10 9 0 0 0 6 6 7 7 6 6 6 6 5 5 5 6 6 5 7 5 6 6 6 6 6 0 3 3 7 9 7 12 7 7 6 4 8 10 8 7 11 4 -9999 -9999
-9999 -9999 -9999 -9999 -9999 -9999 0 4 7 4 9 7 4 6 6 6 7 10 9 9 5 7 3 10 12 6 11 13 12 18 17 16 10 13 7 13 12 6 7 8 7 7 6 15 23 21 21 31 9 16 15 9 6 6 17 22 18 21 26 24 29 26 26 26 29 14 18 25 18 8 7 5 5 5 6 10 7 14 7 6 13 7 10 4 7 6 18 16 8 17 7 19 18 22 19 15 8 12 0 7 6 8 16 8 16 19 10 21 9 12 7 6 6 9 7 7 11 6 8 10 5 6 7 8 5 5 9 6 13 5 6 0 5 7 8 6 4 6 5 6 0 7 6 7 10 4 12 8 8 11 6 5 5 10 6 10 6 6 7 6 6 5 7 5 11 9 5 5 5 7 5 6 6 5 5 6 5 5 6 3 0 0 5 9 6 5 5 7 3 6 3 6 7 7 15 6 9 -9999 -9999
-9999 -9999 -9999 -9999 -9999 -9999 0 0 4 6 6 7 15 7 5 5 4 8 16 16 9 6 9 14 8 8 9 9 10 19 22 20 14 11 6 10 6 6 10 13 10 9 7 15 20 20 18 22 26 25 23 24 5 7 14 25 25 21 23 21 27 22 27 25 21 18 16 9 11 6 6 5 6 6 9 7 7 14 7 5 6 6 5 5 6 9 16 3 6 11 11 6 19 23 18 21 16 14 4 0 9 11 18 5 12 20 13 21 19 20 6 18 7 7 7 6 4 3 3 8 6 5 5 5 10 7 11 11 15 12 7 5 10 13 7 12 9 5 7 6 4 7 5 8 10 12 6 15 6 7 7 13 6 6 7 6 6 6 9 5 7 5 6 5 5 6 5 5 4 7 6 7 4 5 7 6 5 5 5 6 7 7 5 5 5 6 7 5 4 6 4 5 7 6 9 6 15 -9999 -9999
-9999 -9999 -9999 -9999 -9999 -9999 6 6 5 6 12 7 8 9 6 9 7 10 8 8 11 10 4 11 9 8 10 7 11 8 16 6 7 4 10 15 6 6 8 11 7 7 12 5 6 19 21 18 22 22 23 17 14 7 8 23 21 21 17 23 21 23 23 22 19 15 9 15 13 4 4 6 6 9 7 5 6 11 8 17 7 3 5 8 17 19 8 7 8 6 13 6 13 12 19 12 11 7 0 6 16 8 12 19 16 9 16 18 21 21 10 11 22 6 6 7 17 6 0 6 5 6 3 6 15 9 5 9 9 11 11 8 6 8 10 9 9 4 8 6 3 5 4 4 12 7 7 4 6 6 5 5 9 4 8 10 5 6 5 5 6 6 5 4 3 5 5 6 5 7 6 7 4 5 5 5 5 6 6 6 0 3 5 3 5 7 9 7 8 6 4 5 14 7 6 8 17 -9999 -9999
-9999 -9999 -9999 -9999 -9999 -9999 17 9 7 6 8 9 5 6 9 7 14 16 3 3 6 8 11 11 5 6 5 4 8 8 9 14 13 7 6 12 6 5 8 6 7 13 23 7 6 7 23 20 21 9 9 17 23 23 23 22 23 21 16 13 22 24 17 20 23 19 14 12 19 9 7 9 5 4 5 6 8 17 6 8 3 5 4 7 4 5 6 6 6 6 6 7 6 4 10 13 6 4 5 6 8 15 19 11 13 7 6 10 7 6 6 7 7 12 9 9 9 5 5 7 5 6 5 6 8 7 9 7 6 6 0 9 5 13 11 3 8 5 6 0 6 6 4 4 8 6 7 9 6 6 14 13 8 7 6 7 6 5 6 5 6 6 5 5 7 4 5 6 5 4 6 6 4 5 4 5 4 6 6 6 5 4 4 6 6 4 0 13 10 6 6 6 0 6 16 14 11 -9999 -9999
-9999 -9999 -9999 -9999 -9999 -9999 5 9 9 6 9 7 8 9 10 6 8 16 7 7 7 6 8 7 3 6 9 5 17 19 20 21 20 14 8 12 8 4 6 5 6 7 22 17 9 19 17 12 16 18 7 8 14 18 24 22 20 17 16 20 18 13 16 18 30 25 15 13 13 8 5 8 5 6 6 11 8 5 5 10 7 6 9 5 8 8 6 6 7 6 5 5 7 11 6 8 10 6 15 17 7 9 13 5 6 6 5 6 5 3 6 6 6 6 7 11 11 5 5 7 7 6 6 4 6 8 5 5 6 7 5 9 9 9 0 4 12 6 4 3 5 4 4 8 11 14 6 11 5 12 6 7 9 5 6 9 6 5 6 8 12 13 3 7 7 6 6 4 5 6 5 6 6 4 6 5 7 5 5 6 3 5 6 6 5 6 5 5 9 9 8 9 5 7 10 7 8 -9999 -9999
-9999 -9999 -9999 -9999 -9999 -9999 3 4 0 6 0 4 10 10 10 6 8 6 7 7 16 8 6 16 9 5 19 20 17 20 19 16 19 12 8 10 10 7 7 13 5 9 11 8 16 19 7 7 7 16 26 9 7 23 21 23 21 18 20 18 9 6 12 19 23 25 18 6 17 15 25 19 7 5 4 7 6 5 6 8 9 6 7 8 9 4 3 5 8 9 3 0 0 0 3 0 0 6 6 11 7 8 19 5 5 7 5 16 12 14 10 7 12 6 6 10 6 4 3 6 7 5 6 6 8 7 9 10 7 10 3 4 3 3 0 0 4 4 3 4 3 3 3 3 8 9 5 4 9 16 7 5 7 7 7 7 7 7 7 9 10 7 8 4 6 7 6 4 5 6 7 5 6 5 5 5 4 4 3 5 5 7 8 7 6 4 6 5 7 13 13 10 0 6 10 9 7 -9999 -9999
-9999 -9999 -9999 -9999 -9999 -9999 0 4 3 3 0 0 9 6 11 6 6 8 5 5 11 7 6 7 12 11 18 25 7 8 9 8 19 15 5 9 15 8 6 6 10 5 8 8 6 12 5 6 5 25 26 6 13 23 22 22 26 21 13 21 17 10 16 22 20 22 25 27 17 8 21 26 10 11 4 5 3 4 3 4 7 6 6 7 7 7 6 8 15 4 0 3 8 9 3 4 11 11 15 13 6 7 11 7 6 13 6 18 12 13 8 12 22 7 6 9 18 6 4 5 6 5 5 4 3 4 7 9 10 3 4 6 3 5 5 9 4 3 3 4 3 5 5 5 6 9 4 11 5 8 10 8 7 5 5 14 6 10 6 5 6 5 3 4 6 4 5 3 6 7 6 5 6 5 5 5 5 5 0 5 7 5 8 6 5 3 5 6 4 6 5 4 0 7 8 10 9 -9999 -9999
-9999 -9999 -9999 -9999 -9999 -9999 6 7 7 10 6 7 9 14 11 7 8 12 5 5 4 7 7 4 6 25 19 28 6 10 5 13 9 21 16 13 8 6 5 3 5 9 13 6 8 14 12 6 18 23 22 24 12 22 20 23 23 7 8 19 20 9 25 19 20 27 26 23 27 18 11 27 25 11 3 9 7 7 6 7 6 5 7 6 8 6 10 5 8 8 5 4 3 4 10 3 7 16 14 16 4 5 7 7 11 11 7 13 7 13 5 21 14 8 6 11 10 7 5 7 5 5 5 3 4 6 8 6 9 5 4 7 6 8 6 7 6 4 0 0 3 0 0 0 9 11 6 11 5 6 10 3 7 4 6 4 5 10 10 7 6 6 6 6 6 5 5 4 6 6 6 5 5 5 5 6 5 5 6 5 5 5 7 6 4 5 6 9 3 9 5 6 5 0 13 7 10 -9999 -9999
-9999 -9999 -9999 -9999 -9999 -9999 5 8 8 6 5 9 8 17 14 6 4 7 5 5 6 7 10 7 11 7 18 16 4 14 7 22 21 19 15 17 20 7 7 7 7 5 6 9 6 6 13 20 22 18 22 14 24 22 23 23 21 20 20 16 23 22 22 19 18 24 25 29 28 29 24 25 13 15 19 8 4 11 7 4 5 5 6 8 7 6 5 7 6 3 7 4 6 6 7 7 10 7 9 25 3 6 7 9 6 6 9 12 7 6 6 16 7 7 6 10 7 8 9 5 8 0 5 6 5 5 7 5 6 4 4 5 6 9 4 4 6 5 4 0 0 0 0 0 6 6 8 7 7 10 6 5 6 6 6 6 6 5 14 9 9 6 5 6 6 8 5 5 6 7 5 6 6 5 5 4 6 6 6 6 7 6 10 7 6 5 6 6 4 6 5 4 4 5 3 0 8 -9999 -9999
-9999 -9999 -9999 -9999 -9999 -9999 6 7 5 0 5 12 6 4 6 7 8 8 11 11 8 10 7 5 7 6 7 16 16 21 13 11 19 16 9 12 13 7 7 6 21 24 9 4 8 9 15 10 7 6 23 11 25 19 15 18 21 27 20 17 19 22 18 21 19 24 26 27 26 29 25 26 19 9 6 12 7 10 9 8 4 3 8 5 5 7 7 5 8 6 5 8 17 7 6 8 7 9 8 20 22 20 22 13 6 6 6 7 7 15 17 6 7 16 3 6 9 12 7 11 8 0 5 6 6 9 7 6 8 4 5 5 6 6 7 6 5 5 4 5 6 5 0 0 6 8 7 7 15 10 0 8 5 5 7 12 6 7 5 5 6 6 5 7 6 4 5 6 5 5 5 5 4 5 4 5 5 6 6 6 6 6 6 6 4 6 6 8 6 5 0 5 7 5 8 0 6 -9999 -9999
-9999 -9999 -9999 -9999 -9999 -9999 3 3 0 5 6 7 6 5 3 5 8 4 5 5 8 17 15 19 20 7 7 8 9 10 8 17 21 7 7 7 8 8 13 11 26 21 21 7 7 12 25 20 20 7 12 10 10 11 21 23 19 23 18 20 17 18 18 19 15 23 22 26 28 27 27 9 8 9 9 8 8 8 9 6 6 6 5 5 5 5 5 6 8 6 3 6 5 6 11 8 8 7 6 20 9 14 10 6 6 6 11 22 9 13 15 5 7 8 5 6 16 17 7 5 16 8 9 5 6 8 9 11 13 5 3 5 5 6 7 8 6 5 5 6 6 6 0 0 3 7 5 8 10 6 3 12 5 5 3 6 5 5 4 6 4 5 5 6 6 6 5 6 4 5 4 6 6 5 7 6 6 7 6 5 8 5 8 6 6 4 7 7 5 6 5 5 0 7 5 8 7 -9999 -9999
-9999 -9999 -9999 -9999 -9999 -9999 5 0 0 8 7 6 4 5 7 3 11 9 7 7 6 13 18 8 9 7 6 5 6 7 11 13 21 11 6 10 13 7 24 25 20 14 9 6 7 5 8 8 12 11 9 19 18 10 19 20 17 22 24 25 23 20 22 23 22 23 23 21 23 25 26 28 25 27 5 8 6 3 7 9 6 5 4 3 7 4 5 4 5 4 5 6 4 6 9 5 15 16 11 18 6 5 6 7 5 6 16 18 6 9 6 6 15 16 9 6 7 14 12 4 12 11 5 9 4 5 9 7 6 6 6 6 9 0 9 7 6 7 6 13 5 5 0 0 0 9 10 6 7 4 6 6 6 3 4 5 7 4 6 6 5 5 0 4 7 4 6 5 8 0 0 7 0 6 7 7 8 5 7 7 7 5 6 5 6 7 8 6 3 5 6 6 6 6 6 5 7 -9999 -9999
-9999 -9999 -9999 -9999 -9999 -9999 8 6 3 4 9 8 4 6 5 7 6 6 5 5 5 8 12 12 12 10 11 4 7 7 17 20 11 10 12 7 11 27 20 22 23 26 11 5 7 6 4 5 7 6 8 22 13 9 12 12 24 27 9 9 11 20 23 18 22 16 17 19 18 22 23 30 30 19 10 17 8 6 5 8 4 4 5 5 8 4 5 5 6 6 6 15 6 6 6 7 7 10 7 11 5 7 9 8 3 6 17 21 10 5 3 5 10 14 7 6 6 6 7 6 8 11 9 4 7 8 8 5 9 10 9 7 7 7 5 6 6 7 5 8 6 5 6 5 0 8 12 6 5 4 6 8 11 5 3 8 5 5 5 6 6 5 5 5 6 6 6 5 7 5 5 5 5 9 8 11 7 7 6 6 5 6 6 6 5 7 12 6 4 6 5 5 5 5 5 5 5 -9999 -9999
-9999 -9999 -9999 -9999 -9999 -9999 5 5 5 5 6 8 8 9 3 12 6 5 4 4 4 4 5 5 12 10 8 5 6 5 17 19 11 6 8 9 17 22 15 23 25 24 5 4 3 7 7 17 17 28 4 8 24 19 15 15 21 26 6 6 6 10 21 20 23 21 22 21 12 20 16 26 30 30 5 7 11 15 5 4 5 6 4 5 4 3 3 5 7 7 6 11 10 7 8 7 7 11 12 6 0 0 20 26 17 20 19 5 8 11 12 3 6 10 6 6 9 4 3 6 9 6 0 10 10 14 6 3 8 6 8 8 7 7 5 7 4 8 6 7 5 4 7 6 5 9 6 5 6 4 7 6 18 6 5 6 7 6 5 8 7 5 5 5 6 5 4 7 6 6 5 6 9 9 10 7 6 6 6 5 5 5 4 5 5 7 15 4 5 6 5 5 7 7 5 4 0 -9999 -9999
-9999 -9999 -9999 -9999 -9999 -9999 5 6 6 8 8 5 7 5 9 7 6 10 4 4 8 9 0 8 8 6 11 8 7 20 20 11 5 6 8 4 4 20 7 10 9 5 5 5 6 6 6 10 10 7 10 7 10 27 17 23 17 26 8 5 5 6 7 14 13 18 19 23 10 13 16 23 25 32 7 11 24 8 6 5 6 4 4 5 6 6 5 6 4 5 5 5 6 6 7 4 8 4 5 5 6 4 22 11 9 12 23 12 4 6 16 7 7 6 9 9 9 4 0 4 6 7 5 5 5 6 7 8 5 6 13 7 7 7 5 7 9 6 5 11 7 5 7 6 4 17 9 6 10 6 6 7 20 7 5 6 7 5 6 7 8 12 9 7 9 6 8 4 7 7 5 8 12 8 8 7 6 7 9 6 5 5 5 6 4 8 6 6 6 6 6 6 6 5 5 6 6 -9999 -9999
-9999 -9999 -9999 -9999 -9999 -9999 4 9 4 6 7 4 5 0 3 7 18 6 9 9 6 5 5 7 7 7 12 7 12 21 13 13 8 10 7 5 8 14 5 8 6 10 8 17 9 6 5 6 6 7 7 7 14 8 22 19 25 25 9 5 4 4 12 14 16 15 20 20 20 17 14 11 15 27 28 12 9 6 9 6 5 3 6 4 5 7 7 10 4 5 6 6 6 5 6 3 5 9 4 5 3 6 8 5 7 9 10 7 0 5 7 9 6 7 6 10 20 19 12 10 8 6 4 5 7 9 6 9 5 9 9 10 7 6 5 5 10 8 5 5 0 4 7 6 6 11 7 6 6 19 5 6 7 11 5 6 8 7 8 8 6 6 6 6 5 3 6 6 5 6 3 11 6 6 6 7 6 11 10 7 5 5 6 6 6 5 6 0 5 7 6 6 5 6 5 6 6 -9999 -9999
-9999 -9999 -9999 -9999 -9999 -9999 7 6 5 3 6 8 4 3 7 5 8 10 4 4 8 5 11 9 13 5 6 7 18 7 7 5 6 9 6 8 6 7 5 4 7 5 6 19 5 7 20 6 6 9 26 12 11 17 14 23 20 28 25 10 26 7 5 8 23 25 20 21 19 18 16 23 20 32 30 5 13 11 7 8 12 5 4 4 5 5 5 5 5 6 6 6 4 5 5 0 4 6 3 5 5 5 7 5 6 15 9 10 6 8 7 7 7 6 7 10 20 15 20 22 10 4 6 5 7 6 4 7 5 6 7 6 6 8 6 6 6 7 5 6 5 7 9 6 4 5 6 7 0 7 15 4 6 7 12 6 4 10 6 7 7 10 6 6 6 5 7 6 6 6 6 6 6 5 5 6 7 5 7 6 5 8 7 5 6 15 6 6 5 6 6 5 5 5 5 5 7 -9999 -9999
-9999 -9999 -9999 -9999 -9999 -9999 6 4 6 8 6 6 6 7 8 10 6 13 12 12 13 5 7 10 8 8 8 6 6 7 8 4 5 6 9 0 7 10 9 6 8 6 9 14 11 7 18 23 28 7 8 12 7 7 24 20 24 20 24 25 27 29 6 8 24 23 22 16 19 21 18 16 20 11 20 9 8 8 16 25 17 4 6 5 5 6 6 5 7 7 6 5 5 6 6 3 4 7 6 6 5 7 6 8 6 3 8 0 6 9 5 6 6 5 7 6 7 6 20 23 14 5 7 6 8 5 6 7 5 6 6 9 6 6 8 6 4 7 0 7 5 7 7 8 4 6 8 7 0 6 7 14 7 6 5 5 6 7 7 7 7 9 6 7 6 5 6 6 6 6 9 5 5 4 6 3 5 5 6 5 5 6 5 6 5 10 6 6 6 7 5 3 5 5 6 5 6 -9999 -9999
-9999 -9999 -9999 -9999 -9999 -9999 10 7 6 7 5 7 10 10 8 7 8 10 8 8 8 8 9 9 8 7 12 5 6 12 7 7 7 6 4 8 6 8 5 5 5 7 12 7 6 11 11 7 17 6 5 9 11 13 23 21 20 27 26 25 26 13 6 6 17 10 12 14 20 18 18 19 23 23 23 26 28 16 28 26 13 5 7 5 5 4 6 5 6 4 6 6 6 5 6 7 6 3 5 4 5 4 7 3 5 5 7 6 6 6 5 6 5 5 13 6 5 8 0 7 11 3 8 7 6 5 4 7 5 16 6 10 8 5 7 5 5 8 0 5 7 4 5 6 8 8 7 8 5 6 5 8 15 5 5 6 5 5 6 6 9 11 5 5 3 6 4 6 4 6 7 6 5 6 5 6 6 4 7 8 5 6 5 5 6 6 5 5 5 10 7 6 5 5 6 5 6 -9999 -9999
-9999 -9999 -9999 -9999 -9999 -9999 8 6 9 11 4 6 12 13 6 9 11 6 6 6 11 7 11 19 10 7 12 8 4 8 5 7 5 14 5 10 9 17 9 12 7 7 23 7 4 5 10 18 23 23 9 20 9 20 19 8 19 21 9 11 5 7 6 5 8 9 3 13 14 14 20 23 24 23 12 22 29 18 13 25 14 6 5 5 7 4 5 6 5 5 5 5 6 6 7 7 6 5 5 6 9 6 6 6 6 6 6 5 7 5 6 10 7 7 7 4 0 4 6 5 0 5 0 0 6 3 6 6 10 18 9 10 7 7 6 7 6 7 4 6 5 6 6 6 12 8 7 7 4 6 12 7 6 7 7 8 5 4 5 5 6 14 5 8 5 3 6 6 5 5 5 5 5 7 6 7 6 6 12 9 11 6 6 6 6 6 5 5 5 5 5 5 5 5 6 7 6 -9999 -9999
-9999 -9999 -9999 -9999 -9999 -9999 7 8 11 8 9 5 4 8 4 7 12 10 16 16 13 16 15 11 13 10 6 9 6 6 7 7 7 12 14 5 18 18 26 7 6 16 6 9 7 9 11 16 9 16 10 11 4 13 21 16 15 6 14 9 6 7 7 7 23 25 6 8 20 22 21 25 27 24 25 21 23 25 23 15 27 24 21 9 9 3 5 6 6 6 6 5 6 6 0 6 4 5 4 4 5 5 11 7 7 7 18 5 4 6 9 9 16 7 7 3 7 8 7 3 3 6 4 3 0 0 5 6 7 6 13 12 5 5 6 11 7 5 7 3 7 5 5 0 4 7 6 14 5 6 5 4 0 8 11 7 3 5 6 3 7 5 4 6 7 8 5 6 5 6 6 5 6 6 6 6 15 6 4 13 8 7 6 6 6 4 6 6 4 6 6 5 5 6 5 5 5 -9999 -9999
-9999 -9999 -9999 -9999 -9999 -9999 -9999 8 14 8 5 7 3 5 6 5 11 10 12 12 23 20 18 15 20 11 18 21 11 6 9 13 7 9 18 22 20 9 5 9 7 6 7 5 9 14 6 7 5 8 5 5 7 7 11 20 5 4 13 26 25 8 6 9 13 15 17 12 23 21 21 21 27 26 21 21 25 21 21 11 8 18 27 13 10 4 5 6 6 4 6 6 7 13 5 5 7 6 5 4 6 5 6 7 3 6 7 6 6 6 4 8 4 10 0 0 3 7 7 6 5 7 5 3 3 8 7 13 6 7 11 15 3 7 6 10 6 6 8 5 6 5 5 4 0 7 17 7 0 5 0 8 5 6 7 5 6 7 6 5 5 5 6 6 8 7 6 6 5 6 8 0 5 6 10 6 7 5 5 5 8 6 8 8 5 5 8 4 3 7 6 7 7 7 3 6 5 -9999 -9999
